# This PCD file was generated using the MATLAB® pcwrite function
# from Computer Vision System Toolbox®.
# .PCD v.7 - Point Cloud Data file format
VERSION .7
FIELDS x y z rgb
SIZE 4 4 4 4
TYPE F F F F
COUNT 1 1 1 1
WIDTH 1109
HEIGHT 1
VIEWPOINT 0 0 0 1 0 0 0
POINTS 1109
DATA ascii
4.080000 8.520000 3.410000 1.096967687e-38
4.080000 8.520000 3.400000 1.096967687e-38
4.090000 8.520000 3.400000 1.096967687e-38
4.090000 8.520000 3.390000 1.096967687e-38
4.090000 8.520000 3.380000 1.096967687e-38
4.110000 8.520000 3.380000 1.096967687e-38
4.110000 8.520000 3.370000 1.096967687e-38
4.120000 8.520000 3.370000 1.096967687e-38
4.120000 8.520000 3.360000 1.096967687e-38
4.130000 8.520000 3.350000 1.096967687e-38
4.130000 8.520000 3.340000 1.096967687e-38
4.140000 8.520000 3.340000 1.096967687e-38
4.140000 8.520000 3.330000 1.096967687e-38
4.150000 8.520000 3.320000 1.096967687e-38
4.150000 8.520000 3.320000 1.096967687e-38
4.150000 8.520000 3.310000 1.096967687e-38
4.160000 8.520000 3.300000 1.096967687e-38
4.170000 8.520000 3.290000 1.096967687e-38
4.170000 8.520000 3.280000 1.096967687e-38
4.180000 8.520000 3.290000 1.096967687e-38
4.180000 8.520000 3.270000 1.096967687e-38
4.190000 8.520000 3.260000 1.096967687e-38
4.200000 8.520000 3.260000 1.096967687e-38
4.190000 8.520000 3.240000 1.096967687e-38
4.200000 8.520000 3.240000 1.096967687e-38
4.210000 8.520000 3.230000 1.096967687e-38
4.210000 8.520000 3.220000 1.096967687e-38
4.220000 8.520000 3.220000 1.096967687e-38
4.220000 8.520000 3.200000 1.096967687e-38
4.220000 8.520000 3.190000 1.096967687e-38
4.230000 8.520000 3.200000 1.096967687e-38
4.230000 8.520000 3.180000 1.096967687e-38
4.240000 8.520000 3.170000 1.096967687e-38
4.240000 8.520000 3.160000 1.096967687e-38
4.250000 8.520000 3.150000 1.096967687e-38
4.250000 8.520000 3.140000 1.096967687e-38
4.260000 8.520000 3.130000 1.096967687e-38
4.260000 8.520000 3.130000 1.096967687e-38
4.260000 8.520000 3.110000 1.096967687e-38
4.270000 8.520000 3.100000 1.096967687e-38
4.280000 8.520000 3.100000 1.096967687e-38
4.280000 8.520000 3.080000 1.096967687e-38
4.280000 8.520000 3.060000 1.096967687e-38
4.290000 8.520000 3.060000 1.096967687e-38
4.300000 8.520000 3.050000 1.096967687e-38
4.300000 8.520000 3.040000 1.096967687e-38
4.300000 8.520000 3.020000 1.096967687e-38
4.300000 8.520000 3.000000 1.096967687e-38
4.310000 8.520000 2.990000 1.096967687e-38
4.320000 8.520000 2.990000 1.096967687e-38
4.320000 8.520000 2.970000 1.096967687e-38
4.330000 8.520000 2.960000 1.096967687e-38
4.330000 8.520000 2.940000 1.096967687e-38
4.330000 8.520000 2.930000 1.096967687e-38
4.340000 8.520000 2.910000 1.096967687e-38
4.340000 8.520000 2.910000 1.096967687e-38
4.340000 8.520000 2.880000 1.096967687e-38
4.350000 8.520000 2.860000 1.096967687e-38
4.350000 8.520000 2.850000 1.096967687e-38
4.360000 8.520000 2.830000 1.096967687e-38
4.360000 8.520000 2.810000 1.096967687e-38
4.360000 8.520000 2.790000 1.096967687e-38
4.370000 8.520000 2.770000 1.096967687e-38
4.370000 8.520000 2.750000 1.096967687e-38
4.370000 8.520000 2.730000 1.096967687e-38
4.380000 8.520000 2.700000 1.096967687e-38
4.380000 8.520000 2.680000 1.096967687e-38
4.380000 8.520000 2.650000 1.096967687e-38
4.380000 8.520000 2.620000 1.096967687e-38
4.250000 8.520000 1.790000 1.096967687e-38
4.230000 8.520000 1.770000 1.096967687e-38
4.250000 8.520000 1.790000 1.096967687e-38
4.270000 8.520000 1.800000 1.096967687e-38
4.290000 8.520000 1.800000 1.096967687e-38
4.300000 8.520000 1.800000 1.096967687e-38
4.320000 8.520000 1.790000 1.096967687e-38
4.330000 8.520000 1.770000 1.096967687e-38
4.340000 8.520000 1.760000 1.096967687e-38
4.360000 8.520000 1.750000 1.096967687e-38
4.370000 8.520000 1.720000 1.096967687e-38
4.370000 8.520000 1.610000 1.096967687e-38
4.380000 8.520000 1.590000 1.096967687e-38
4.400000 8.520000 1.320000 1.096967687e-38
4.360000 8.520000 0.670000 1.096967687e-38
2.210000 8.520000 1.320000 1.419862586e-38
2.130000 8.520000 1.550000 1.419862586e-38
2.130000 8.520000 3.510000 1.419862586e-38
2.140000 8.520000 3.520000 1.419862586e-38
2.150000 8.520000 3.530000 1.419862586e-38
2.170000 8.520000 3.540000 1.419862586e-38
2.170000 8.520000 3.550000 1.419862586e-38
2.190000 8.520000 3.560000 1.419862586e-38
2.200000 8.520000 3.570000 1.419862586e-38
2.210000 8.520000 3.580000 1.419862586e-38
2.230000 8.520000 3.600000 1.419862586e-38
2.250000 8.520000 3.600000 1.419862586e-38
2.260000 8.520000 3.610000 1.419862586e-38
2.270000 8.520000 3.630000 1.419862586e-38
2.290000 8.520000 3.640000 1.419862586e-38
2.310000 8.520000 3.640000 1.419862586e-38
2.330000 8.520000 3.650000 1.419862586e-38
2.340000 8.520000 3.670000 1.419862586e-38
2.370000 8.520000 3.670000 1.419862586e-38
2.380000 8.520000 3.690000 1.419862586e-38
2.400000 8.520000 3.700000 1.419862586e-38
2.420000 8.520000 3.710000 1.419862586e-38
2.440000 8.520000 3.720000 1.419862586e-38
2.490000 8.520000 3.720000 1.419862586e-38
2.500000 8.520000 3.730000 1.419862586e-38
2.490000 8.520000 3.750000 1.419862586e-38
2.410000 8.520000 3.790000 1.419862586e-38
2.410000 8.520000 3.810000 1.419862586e-38
2.410000 8.520000 3.820000 1.419862586e-38
2.420000 8.520000 3.830000 1.419862586e-38
2.460000 8.520000 3.840000 1.419862586e-38
2.880000 8.520000 3.750000 1.419862586e-38
3.920000 8.520000 3.740000 1.419862586e-38
4.020000 8.520000 3.750000 1.283167883e-38
3.170000 8.590000 3.830000 1.419862586e-38
3.210000 8.590000 3.830000 1.419862586e-38
3.230000 8.590000 3.820000 1.419862586e-38
3.260000 8.590000 3.820000 1.419862586e-38
3.280000 8.590000 3.810000 1.419862586e-38
3.310000 8.590000 3.810000 1.419862586e-38
3.330000 8.590000 3.810000 1.419862586e-38
3.340000 8.590000 3.800000 1.419862586e-38
3.360000 8.590000 3.800000 1.419862586e-38
3.380000 8.590000 3.790000 1.419862586e-38
3.390000 8.590000 3.780000 1.419862586e-38
3.420000 8.590000 3.780000 1.419862586e-38
3.440000 8.590000 3.780000 1.419862586e-38
3.460000 8.590000 3.780000 1.419862586e-38
3.470000 8.590000 3.770000 1.419862586e-38
3.490000 8.590000 3.770000 1.419862586e-38
3.510000 8.590000 3.760000 1.419862586e-38
3.510000 8.590000 3.750000 1.419862586e-38
3.520000 8.590000 3.750000 1.419862586e-38
3.530000 8.590000 3.740000 1.419862586e-38
3.550000 8.590000 3.740000 1.419862586e-38
3.570000 8.590000 3.740000 1.419862586e-38
3.590000 8.590000 3.740000 1.419862586e-38
3.590000 8.590000 3.730000 1.419862586e-38
3.600000 8.590000 3.720000 1.419862586e-38
3.630000 8.590000 3.730000 1.419862586e-38
3.670000 8.590000 3.730000 1.419862586e-38
3.690000 8.590000 3.730000 1.419862586e-38
3.700000 8.590000 3.730000 1.419862586e-38
3.720000 8.590000 3.730000 1.419862586e-38
3.740000 8.590000 3.730000 1.419862586e-38
3.760000 8.590000 3.730000 1.419862586e-38
3.790000 8.590000 3.730000 1.419862586e-38
3.800000 8.590000 3.730000 1.419862586e-38
3.790000 8.590000 3.720000 1.419862586e-38
3.820000 8.590000 3.730000 1.419862586e-38
3.840000 8.590000 3.730000 1.419862586e-38
3.850000 8.590000 3.720000 1.419862586e-38
3.860000 8.590000 3.720000 1.419862586e-38
3.890000 8.590000 3.730000 1.419862586e-38
3.910000 8.590000 3.730000 1.419862586e-38
3.910000 8.590000 3.720000 1.419862586e-38
3.920000 8.590000 3.720000 1.419862586e-38
3.950000 8.590000 3.750000 1.283167883e-38
4.050000 8.590000 3.760000 1.283167883e-38
4.050000 8.590000 3.750000 1.283167883e-38
4.050000 8.590000 3.740000 1.283167883e-38
4.050000 8.590000 3.730000 1.283167883e-38
3.890000 8.590000 3.580000 1.419862586e-38
3.890000 8.590000 3.570000 1.419862586e-38
3.900000 8.590000 3.560000 1.419862586e-38
3.910000 8.590000 3.680000 1.419862586e-38
4.120000 8.590000 3.690000 1.283167883e-38
4.120000 8.590000 3.680000 1.283167883e-38
4.110000 8.590000 3.660000 1.283167883e-38
4.110000 8.590000 3.650000 1.283167883e-38
4.090000 8.590000 3.630000 1.283167883e-38
4.090000 8.590000 3.620000 1.283167883e-38
4.000000 8.590000 3.610000 1.283167883e-38
3.990000 8.590000 3.480000 1.283167883e-38
4.000000 8.590000 3.470000 1.283167883e-38
4.010000 8.590000 3.480000 1.283167883e-38
4.020000 8.590000 3.470000 1.283167883e-38
4.020000 8.590000 3.460000 1.283167883e-38
4.030000 8.590000 3.460000 1.283167883e-38
4.030000 8.590000 3.440000 1.096967687e-38
4.040000 8.590000 3.440000 1.096967687e-38
4.040000 8.590000 3.430000 1.096967687e-38
4.050000 8.590000 3.430000 1.096967687e-38
4.060000 8.590000 3.420000 1.096967687e-38
4.070000 8.590000 3.420000 1.096967687e-38
4.070000 8.590000 3.410000 1.096967687e-38
4.070000 8.590000 3.400000 1.096967687e-38
4.080000 8.590000 3.400000 1.096967687e-38
4.080000 8.590000 3.390000 1.096967687e-38
4.090000 8.590000 3.390000 1.096967687e-38
4.100000 8.590000 3.390000 1.096967687e-38
4.100000 8.590000 3.380000 1.096967687e-38
4.120000 8.590000 3.380000 1.096967687e-38
4.120000 8.590000 3.370000 1.096967687e-38
4.120000 8.590000 3.350000 1.096967687e-38
4.120000 8.590000 3.350000 1.096967687e-38
4.130000 8.590000 3.340000 1.096967687e-38
4.140000 8.590000 3.340000 1.096967687e-38
4.140000 8.590000 3.330000 1.096967687e-38
4.140000 8.590000 3.320000 1.096967687e-38
4.150000 8.590000 3.310000 1.096967687e-38
4.160000 8.590000 3.310000 1.096967687e-38
4.160000 8.590000 3.300000 1.096967687e-38
4.170000 8.590000 3.290000 1.096967687e-38
4.170000 8.590000 3.290000 1.096967687e-38
4.180000 8.590000 3.280000 1.096967687e-38
4.180000 8.590000 3.270000 1.096967687e-38
4.190000 8.590000 3.260000 1.096967687e-38
4.190000 8.590000 3.250000 1.096967687e-38
4.190000 8.590000 3.240000 1.096967687e-38
4.200000 8.590000 3.240000 1.096967687e-38
4.210000 8.590000 3.230000 1.096967687e-38
4.210000 8.590000 3.230000 1.096967687e-38
4.220000 8.590000 3.210000 1.096967687e-38
4.220000 8.590000 3.210000 1.096967687e-38
4.230000 8.590000 3.200000 1.096967687e-38
4.230000 8.590000 3.190000 1.096967687e-38
4.240000 8.590000 3.180000 1.096967687e-38
4.240000 8.590000 3.170000 1.096967687e-38
4.250000 8.590000 3.160000 1.096967687e-38
4.250000 8.590000 3.150000 1.096967687e-38
4.250000 8.590000 3.140000 1.096967687e-38
4.260000 8.590000 3.130000 1.096967687e-38
4.260000 8.590000 3.120000 1.096967687e-38
4.270000 8.590000 3.110000 1.096967687e-38
4.270000 8.590000 3.100000 1.096967687e-38
4.270000 8.590000 3.090000 1.096967687e-38
4.280000 8.590000 3.080000 1.096967687e-38
4.290000 8.590000 3.070000 1.096967687e-38
4.290000 8.590000 3.060000 1.096967687e-38
4.290000 8.590000 3.040000 1.096967687e-38
4.300000 8.590000 3.040000 1.096967687e-38
4.310000 8.590000 3.030000 1.096967687e-38
4.310000 8.590000 3.010000 1.096967687e-38
4.310000 8.590000 3.000000 1.096967687e-38
4.320000 8.590000 2.980000 1.096967687e-38
4.320000 8.590000 2.960000 1.096967687e-38
4.320000 8.590000 2.950000 1.096967687e-38
4.330000 8.590000 2.940000 1.096967687e-38
4.340000 8.590000 2.940000 1.096967687e-38
4.340000 8.590000 2.920000 1.096967687e-38
4.340000 8.590000 2.900000 1.096967687e-38
4.350000 8.590000 2.880000 1.096967687e-38
4.350000 8.590000 2.870000 1.096967687e-38
4.350000 8.590000 2.850000 1.096967687e-38
4.360000 8.590000 2.830000 1.096967687e-38
4.360000 8.590000 2.820000 1.096967687e-38
4.370000 8.590000 2.800000 1.096967687e-38
4.370000 8.590000 2.770000 1.096967687e-38
4.370000 8.590000 2.750000 1.096967687e-38
4.370000 8.590000 2.730000 1.096967687e-38
4.380000 8.590000 2.710000 1.096967687e-38
4.380000 8.590000 2.690000 1.096967687e-38
4.380000 8.590000 2.650000 1.096967687e-38
4.390000 8.590000 2.630000 1.096967687e-38
4.380000 8.590000 2.590000 1.096967687e-38
4.380000 8.590000 2.550000 1.096967687e-38
4.250000 8.590000 1.780000 1.096967687e-38
4.230000 8.590000 1.770000 1.096967687e-38
4.250000 8.590000 1.780000 1.096967687e-38
4.270000 8.590000 1.790000 1.096967687e-38
4.280000 8.590000 1.790000 1.096967687e-38
4.300000 8.590000 1.800000 1.096967687e-38
4.320000 8.590000 1.790000 1.096967687e-38
4.330000 8.590000 1.770000 1.096967687e-38
4.340000 8.590000 1.760000 1.096967687e-38
4.360000 8.590000 1.750000 1.096967687e-38
4.370000 8.590000 1.730000 1.096967687e-38
4.380000 8.590000 1.710000 1.096967687e-38
4.380000 8.590000 1.620000 1.096967687e-38
4.370000 8.590000 1.600000 1.096967687e-38
4.360000 8.590000 1.060000 1.096967687e-38
4.370000 8.590000 0.750000 1.096967687e-38
2.210000 8.590000 1.280000 1.419862586e-38
2.130000 8.590000 1.550000 1.419862586e-38
2.130000 8.590000 3.510000 1.419862586e-38
2.130000 8.590000 3.520000 1.419862586e-38
2.150000 8.590000 3.530000 1.419862586e-38
2.170000 8.590000 3.540000 1.419862586e-38
2.170000 8.590000 3.550000 1.419862586e-38
2.190000 8.590000 3.560000 1.419862586e-38
2.200000 8.590000 3.570000 1.419862586e-38
2.210000 8.590000 3.580000 1.419862586e-38
2.240000 8.590000 3.590000 1.419862586e-38
2.250000 8.590000 3.600000 1.419862586e-38
2.260000 8.590000 3.610000 1.419862586e-38
2.280000 8.590000 3.620000 1.419862586e-38
2.300000 8.590000 3.630000 1.419862586e-38
2.310000 8.590000 3.640000 1.419862586e-38
2.330000 8.590000 3.650000 1.419862586e-38
2.350000 8.590000 3.660000 1.419862586e-38
2.370000 8.590000 3.670000 1.419862586e-38
2.390000 8.590000 3.680000 1.419862586e-38
2.410000 8.590000 3.690000 1.419862586e-38
2.430000 8.590000 3.700000 1.419862586e-38
2.450000 8.590000 3.710000 1.419862586e-38
2.470000 8.590000 3.730000 1.419862586e-38
2.500000 8.590000 3.730000 1.419862586e-38
2.440000 8.590000 3.770000 1.419862586e-38
2.410000 8.590000 3.790000 1.419862586e-38
2.410000 8.590000 3.800000 1.419862586e-38
2.410000 8.590000 3.820000 1.419862586e-38
2.430000 8.590000 3.830000 1.419862586e-38
2.470000 8.590000 3.840000 1.419862586e-38
2.900000 8.590000 3.820000 1.419862586e-38
3.920000 8.590000 3.740000 1.419862586e-38
4.040000 8.590000 3.740000 1.283167883e-38
3.180000 8.650000 3.820000 1.419862586e-38
3.210000 8.650000 3.820000 1.419862586e-38
3.240000 8.650000 3.810000 1.419862586e-38
3.270000 8.650000 3.810000 1.419862586e-38
3.290000 8.650000 3.810000 1.419862586e-38
3.320000 8.650000 3.800000 1.419862586e-38
3.330000 8.650000 3.800000 1.419862586e-38
3.340000 8.650000 3.790000 1.419862586e-38
3.370000 8.650000 3.790000 1.419862586e-38
3.380000 8.650000 3.780000 1.419862586e-38
3.400000 8.650000 3.780000 1.419862586e-38
3.420000 8.650000 3.770000 1.419862586e-38
3.440000 8.650000 3.770000 1.419862586e-38
3.460000 8.650000 3.770000 1.419862586e-38
3.480000 8.650000 3.760000 1.419862586e-38
3.490000 8.650000 3.760000 1.419862586e-38
3.500000 8.650000 3.750000 1.419862586e-38
3.520000 8.650000 3.750000 1.419862586e-38
3.530000 8.650000 3.740000 1.419862586e-38
3.540000 8.650000 3.740000 1.419862586e-38
3.560000 8.650000 3.730000 1.419862586e-38
3.570000 8.650000 3.730000 1.419862586e-38
3.580000 8.650000 3.720000 1.419862586e-38
3.600000 8.650000 3.720000 1.419862586e-38
3.610000 8.650000 3.720000 1.419862586e-38
3.660000 8.650000 3.730000 1.419862586e-38
3.690000 8.650000 3.720000 1.419862586e-38
3.710000 8.650000 3.720000 1.419862586e-38
3.720000 8.650000 3.720000 1.419862586e-38
3.740000 8.650000 3.720000 1.419862586e-38
3.760000 8.650000 3.720000 1.419862586e-38
3.780000 8.650000 3.720000 1.419862586e-38
3.800000 8.650000 3.720000 1.419862586e-38
3.820000 8.650000 3.720000 1.419862586e-38
3.840000 8.650000 3.730000 1.419862586e-38
3.840000 8.650000 3.720000 1.419862586e-38
3.870000 8.650000 3.730000 1.419862586e-38
3.880000 8.650000 3.720000 1.419862586e-38
3.890000 8.650000 3.720000 1.419862586e-38
3.910000 8.650000 3.720000 1.419862586e-38
3.930000 8.650000 3.720000 1.283167883e-38
3.940000 8.650000 3.720000 1.283167883e-38
3.960000 8.650000 3.720000 1.283167883e-38
4.050000 8.650000 3.760000 1.283167883e-38
4.060000 8.650000 3.760000 1.283167883e-38
4.050000 8.650000 3.740000 1.283167883e-38
4.050000 8.650000 3.730000 1.283167883e-38
4.040000 8.650000 3.720000 1.283167883e-38
3.890000 8.650000 3.570000 1.419862586e-38
3.890000 8.650000 3.560000 1.419862586e-38
3.900000 8.650000 3.560000 1.419862586e-38
4.120000 8.650000 3.680000 1.283167883e-38
4.120000 8.650000 3.680000 1.283167883e-38
4.120000 8.650000 3.670000 1.283167883e-38
4.110000 8.650000 3.650000 1.283167883e-38
4.100000 8.650000 3.640000 1.283167883e-38
4.100000 8.650000 3.620000 1.283167883e-38
4.100000 8.650000 3.610000 1.283167883e-38
4.000000 8.650000 3.590000 1.283167883e-38
3.990000 8.650000 3.480000 1.283167883e-38
4.000000 8.650000 3.470000 1.283167883e-38
4.010000 8.650000 3.470000 1.283167883e-38
4.020000 8.650000 3.460000 1.283167883e-38
4.020000 8.650000 3.450000 1.283167883e-38
4.030000 8.650000 3.460000 1.283167883e-38
4.040000 8.650000 3.450000 1.283167883e-38
4.040000 8.650000 3.440000 1.096967687e-38
4.040000 8.650000 3.430000 1.096967687e-38
4.050000 8.650000 3.430000 1.096967687e-38
4.050000 8.650000 3.420000 1.096967687e-38
4.060000 8.650000 3.420000 1.096967687e-38
4.060000 8.650000 3.410000 1.096967687e-38
4.070000 8.650000 3.400000 1.096967687e-38
4.080000 8.650000 3.400000 1.096967687e-38
4.090000 8.650000 3.400000 1.096967687e-38
4.090000 8.650000 3.390000 1.096967687e-38
4.100000 8.650000 3.380000 1.096967687e-38
4.100000 8.650000 3.370000 1.096967687e-38
4.110000 8.650000 3.370000 1.096967687e-38
4.110000 8.650000 3.360000 1.096967687e-38
4.110000 8.650000 3.350000 1.096967687e-38
4.120000 8.650000 3.340000 1.096967687e-38
4.130000 8.650000 3.340000 1.096967687e-38
4.130000 8.650000 3.330000 1.096967687e-38
4.140000 8.650000 3.330000 1.096967687e-38
4.140000 8.650000 3.320000 1.096967687e-38
4.150000 8.650000 3.320000 1.096967687e-38
4.160000 8.650000 3.310000 1.096967687e-38
4.160000 8.650000 3.300000 1.096967687e-38
4.160000 8.650000 3.290000 1.096967687e-38
4.170000 8.650000 3.280000 1.096967687e-38
4.170000 8.650000 3.270000 1.096967687e-38
4.180000 8.650000 3.270000 1.096967687e-38
4.190000 8.650000 3.260000 1.096967687e-38
4.190000 8.650000 3.250000 1.096967687e-38
4.200000 8.650000 3.250000 1.096967687e-38
4.200000 8.650000 3.240000 1.096967687e-38
4.200000 8.650000 3.230000 1.096967687e-38
4.210000 8.650000 3.220000 1.096967687e-38
4.210000 8.650000 3.210000 1.096967687e-38
4.220000 8.650000 3.210000 1.096967687e-38
4.220000 8.650000 3.200000 1.096967687e-38
4.230000 8.650000 3.190000 1.096967687e-38
4.230000 8.650000 3.180000 1.096967687e-38
4.240000 8.650000 3.170000 1.096967687e-38
4.250000 8.650000 3.160000 1.096967687e-38
4.250000 8.650000 3.150000 1.096967687e-38
4.250000 8.650000 3.140000 1.096967687e-38
4.260000 8.650000 3.130000 1.096967687e-38
4.260000 8.650000 3.120000 1.096967687e-38
4.270000 8.650000 3.110000 1.096967687e-38
4.270000 8.650000 3.100000 1.096967687e-38
4.280000 8.650000 3.090000 1.096967687e-38
4.280000 8.650000 3.080000 1.096967687e-38
4.290000 8.650000 3.080000 1.096967687e-38
4.290000 8.650000 3.060000 1.096967687e-38
4.290000 8.650000 3.040000 1.096967687e-38
4.300000 8.650000 3.030000 1.096967687e-38
4.310000 8.650000 3.030000 1.096967687e-38
4.310000 8.650000 3.010000 1.096967687e-38
4.310000 8.650000 2.990000 1.096967687e-38
4.320000 8.650000 2.990000 1.096967687e-38
4.320000 8.650000 2.970000 1.096967687e-38
4.330000 8.650000 2.960000 1.096967687e-38
4.330000 8.650000 2.940000 1.096967687e-38
4.340000 8.650000 2.930000 1.096967687e-38
4.340000 8.650000 2.910000 1.096967687e-38
4.340000 8.650000 2.900000 1.096967687e-38
4.350000 8.650000 2.880000 1.096967687e-38
4.350000 8.650000 2.860000 1.096967687e-38
4.350000 8.650000 2.850000 1.096967687e-38
4.360000 8.650000 2.830000 1.096967687e-38
4.360000 8.650000 2.810000 1.096967687e-38
4.370000 8.650000 2.800000 1.096967687e-38
4.370000 8.650000 2.770000 1.096967687e-38
4.370000 8.650000 2.740000 1.096967687e-38
4.370000 8.650000 2.730000 1.096967687e-38
4.380000 8.650000 2.710000 1.096967687e-38
4.380000 8.650000 2.680000 1.096967687e-38
4.380000 8.650000 2.650000 1.096967687e-38
4.380000 8.650000 2.620000 1.096967687e-38
4.380000 8.650000 2.580000 1.096967687e-38
4.250000 8.650000 2.530000 1.096967687e-38
4.230000 8.650000 1.790000 1.096967687e-38
4.250000 8.650000 1.790000 1.096967687e-38
4.270000 8.650000 1.800000 1.096967687e-38
4.280000 8.650000 1.790000 1.096967687e-38
4.300000 8.650000 1.790000 1.096967687e-38
4.320000 8.650000 1.790000 1.096967687e-38
4.330000 8.650000 1.770000 1.096967687e-38
4.340000 8.650000 1.750000 1.096967687e-38
4.350000 8.650000 1.730000 1.096967687e-38
4.370000 8.650000 1.720000 1.096967687e-38
4.370000 8.650000 1.640000 1.096967687e-38
4.370000 8.650000 1.180000 1.096967687e-38
4.360000 8.650000 0.800000 1.096967687e-38
2.150000 8.650000 1.280000 1.419862586e-38
2.140000 8.650000 1.570000 1.419862586e-38
2.150000 8.650000 3.530000 1.419862586e-38
2.170000 8.650000 3.540000 1.419862586e-38
2.170000 8.650000 3.550000 1.419862586e-38
2.190000 8.650000 3.560000 1.419862586e-38
2.200000 8.650000 3.570000 1.419862586e-38
2.220000 8.650000 3.580000 1.419862586e-38
2.230000 8.650000 3.590000 1.419862586e-38
2.250000 8.650000 3.600000 1.419862586e-38
2.260000 8.650000 3.620000 1.419862586e-38
2.270000 8.650000 3.630000 1.419862586e-38
2.290000 8.650000 3.630000 1.419862586e-38
2.300000 8.650000 3.650000 1.419862586e-38
2.330000 8.650000 3.660000 1.419862586e-38
2.350000 8.650000 3.660000 1.419862586e-38
2.370000 8.650000 3.670000 1.419862586e-38
2.380000 8.650000 3.680000 1.419862586e-38
2.400000 8.650000 3.690000 1.419862586e-38
2.420000 8.650000 3.700000 1.419862586e-38
2.450000 8.650000 3.710000 1.419862586e-38
2.480000 8.650000 3.730000 1.419862586e-38
2.490000 8.650000 3.740000 1.419862586e-38
2.480000 8.650000 3.750000 1.419862586e-38
2.410000 8.650000 3.790000 1.419862586e-38
2.410000 8.650000 3.800000 1.419862586e-38
2.410000 8.650000 3.820000 1.419862586e-38
2.420000 8.650000 3.830000 1.419862586e-38
2.460000 8.650000 3.840000 1.419862586e-38
2.880000 8.650000 3.750000 1.419862586e-38
3.920000 8.650000 3.740000 1.419862586e-38
3.990000 8.650000 3.750000 1.283167883e-38
3.180000 8.730000 3.820000 1.419862586e-38
3.210000 8.730000 3.820000 1.419862586e-38
3.250000 8.730000 3.820000 1.419862586e-38
3.260000 8.730000 3.810000 1.419862586e-38
3.290000 8.730000 3.810000 1.419862586e-38
3.310000 8.730000 3.800000 1.419862586e-38
3.320000 8.730000 3.790000 1.419862586e-38
3.350000 8.730000 3.790000 1.419862586e-38
3.370000 8.730000 3.790000 1.419862586e-38
3.390000 8.730000 3.780000 1.419862586e-38
3.410000 8.730000 3.780000 1.419862586e-38
3.430000 8.730000 3.780000 1.419862586e-38
3.440000 8.730000 3.770000 1.419862586e-38
3.460000 8.730000 3.770000 1.419862586e-38
3.470000 8.730000 3.760000 1.419862586e-38
3.490000 8.730000 3.760000 1.419862586e-38
3.500000 8.730000 3.750000 1.419862586e-38
3.510000 8.730000 3.750000 1.419862586e-38
3.530000 8.730000 3.740000 1.419862586e-38
3.550000 8.730000 3.740000 1.419862586e-38
3.560000 8.730000 3.730000 1.419862586e-38
3.560000 8.730000 3.720000 1.419862586e-38
3.580000 8.730000 3.720000 1.419862586e-38
3.600000 8.730000 3.720000 1.419862586e-38
3.620000 8.730000 3.720000 1.419862586e-38
3.640000 8.730000 3.720000 1.419862586e-38
3.660000 8.730000 3.720000 1.419862586e-38
3.680000 8.730000 3.720000 1.419862586e-38
3.700000 8.730000 3.720000 1.419862586e-38
3.730000 8.730000 3.720000 1.419862586e-38
3.740000 8.730000 3.720000 1.419862586e-38
3.750000 8.730000 3.720000 1.419862586e-38
3.780000 8.730000 3.720000 1.419862586e-38
3.790000 8.730000 3.720000 1.419862586e-38
3.800000 8.730000 3.720000 1.419862586e-38
3.830000 8.730000 3.720000 1.419862586e-38
3.840000 8.730000 3.720000 1.419862586e-38
3.860000 8.730000 3.720000 1.419862586e-38
3.890000 8.730000 3.720000 1.419862586e-38
3.900000 8.730000 3.720000 1.419862586e-38
3.890000 8.730000 3.710000 1.419862586e-38
3.910000 8.730000 3.710000 1.419862586e-38
3.940000 8.730000 3.720000 1.283167883e-38
3.950000 8.730000 3.720000 1.283167883e-38
4.050000 8.730000 3.750000 1.283167883e-38
4.050000 8.730000 3.750000 1.283167883e-38
4.050000 8.730000 3.740000 1.283167883e-38
4.050000 8.730000 3.730000 1.283167883e-38
4.050000 8.730000 3.720000 1.283167883e-38
3.890000 8.730000 3.570000 1.419862586e-38
3.890000 8.730000 3.560000 1.419862586e-38
3.900000 8.730000 3.560000 1.419862586e-38
3.910000 8.730000 3.550000 1.419862586e-38
4.120000 8.730000 3.680000 1.283167883e-38
4.130000 8.730000 3.680000 1.283167883e-38
4.120000 8.730000 3.670000 1.283167883e-38
4.110000 8.730000 3.650000 1.283167883e-38
4.100000 8.730000 3.640000 1.283167883e-38
4.090000 8.730000 3.620000 1.283167883e-38
4.090000 8.730000 3.610000 1.283167883e-38
4.010000 8.730000 3.600000 1.283167883e-38
4.000000 8.730000 3.480000 1.283167883e-38
4.010000 8.730000 3.470000 1.283167883e-38
4.010000 8.730000 3.460000 1.283167883e-38
4.020000 8.730000 3.460000 1.283167883e-38
4.030000 8.730000 3.450000 1.283167883e-38
4.030000 8.730000 3.450000 1.283167883e-38
4.040000 8.730000 3.440000 1.283167883e-38
4.050000 8.730000 3.440000 1.283167883e-38
4.050000 8.730000 3.430000 1.096967687e-38
4.060000 8.730000 3.420000 1.096967687e-38
4.060000 8.730000 3.420000 1.096967687e-38
4.070000 8.730000 3.410000 1.096967687e-38
4.080000 8.730000 3.410000 1.096967687e-38
4.080000 8.730000 3.400000 1.096967687e-38
4.080000 8.730000 3.390000 1.096967687e-38
4.090000 8.730000 3.390000 1.096967687e-38
4.100000 8.730000 3.380000 1.096967687e-38
4.110000 8.730000 3.380000 1.096967687e-38
4.110000 8.730000 3.370000 1.096967687e-38
4.110000 8.730000 3.360000 1.096967687e-38
4.120000 8.730000 3.360000 1.096967687e-38
4.130000 8.730000 3.350000 1.096967687e-38
4.130000 8.730000 3.340000 1.096967687e-38
4.140000 8.730000 3.340000 1.096967687e-38
4.140000 8.730000 3.320000 1.096967687e-38
4.140000 8.730000 3.310000 1.096967687e-38
4.150000 8.730000 3.320000 1.096967687e-38
4.160000 8.730000 3.310000 1.096967687e-38
4.160000 8.730000 3.300000 1.096967687e-38
4.170000 8.730000 3.290000 1.096967687e-38
4.170000 8.730000 3.280000 1.096967687e-38
4.180000 8.730000 3.280000 1.096967687e-38
4.180000 8.730000 3.270000 1.096967687e-38
4.180000 8.730000 3.260000 1.096967687e-38
4.190000 8.730000 3.250000 1.096967687e-38
4.190000 8.730000 3.240000 1.096967687e-38
4.200000 8.730000 3.240000 1.096967687e-38
4.200000 8.730000 3.230000 1.096967687e-38
4.210000 8.730000 3.230000 1.096967687e-38
4.220000 8.730000 3.220000 1.096967687e-38
4.220000 8.730000 3.200000 1.096967687e-38
4.230000 8.730000 3.200000 1.096967687e-38
4.230000 8.730000 3.190000 1.096967687e-38
4.230000 8.730000 3.180000 1.096967687e-38
4.240000 8.730000 3.180000 1.096967687e-38
4.250000 8.730000 3.170000 1.096967687e-38
4.250000 8.730000 3.150000 1.096967687e-38
4.250000 8.730000 3.140000 1.096967687e-38
4.260000 8.730000 3.140000 1.096967687e-38
4.260000 8.730000 3.130000 1.096967687e-38
4.270000 8.730000 3.110000 1.096967687e-38
4.270000 8.730000 3.100000 1.096967687e-38
4.270000 8.730000 3.090000 1.096967687e-38
4.280000 8.730000 3.080000 1.096967687e-38
4.290000 8.730000 3.070000 1.096967687e-38
4.290000 8.730000 3.060000 1.096967687e-38
4.300000 8.730000 3.050000 1.096967687e-38
4.300000 8.730000 3.040000 1.096967687e-38
4.310000 8.730000 3.030000 1.096967687e-38
4.310000 8.730000 3.010000 1.096967687e-38
4.310000 8.730000 3.000000 1.096967687e-38
4.320000 8.730000 2.990000 1.096967687e-38
4.320000 8.730000 2.970000 1.096967687e-38
4.330000 8.730000 2.960000 1.096967687e-38
4.330000 8.730000 2.950000 1.096967687e-38
4.340000 8.730000 2.940000 1.096967687e-38
4.340000 8.730000 2.920000 1.096967687e-38
4.340000 8.730000 2.900000 1.096967687e-38
4.350000 8.730000 2.880000 1.096967687e-38
4.350000 8.730000 2.870000 1.096967687e-38
4.350000 8.730000 2.850000 1.096967687e-38
4.360000 8.730000 2.830000 1.096967687e-38
4.360000 8.730000 2.810000 1.096967687e-38
4.360000 8.730000 2.790000 1.096967687e-38
4.370000 8.730000 2.770000 1.096967687e-38
4.370000 8.730000 2.750000 1.096967687e-38
4.370000 8.730000 2.730000 1.096967687e-38
4.380000 8.730000 2.710000 1.096967687e-38
4.380000 8.730000 2.690000 1.096967687e-38
4.380000 8.730000 2.660000 1.096967687e-38
4.380000 8.730000 2.620000 1.096967687e-38
4.380000 8.730000 2.590000 1.096967687e-38
4.380000 8.730000 2.540000 1.096967687e-38
4.260000 8.730000 1.780000 1.096967687e-38
4.250000 8.730000 1.770000 1.096967687e-38
4.260000 8.730000 1.780000 1.096967687e-38
4.280000 8.730000 1.790000 1.096967687e-38
4.300000 8.730000 1.790000 1.096967687e-38
4.310000 8.730000 1.780000 1.096967687e-38
4.330000 8.730000 1.760000 1.096967687e-38
4.340000 8.730000 1.750000 1.096967687e-38
4.360000 8.730000 1.740000 1.096967687e-38
4.370000 8.730000 1.730000 1.096967687e-38
4.370000 8.730000 1.260000 1.096967687e-38
4.370000 8.730000 0.730000 1.096967687e-38
2.230000 8.730000 1.260000 1.419862586e-38
2.130000 8.730000 1.550000 1.419862586e-38
2.130000 8.730000 3.510000 1.419862586e-38
2.140000 8.730000 3.520000 1.419862586e-38
2.150000 8.730000 3.530000 1.419862586e-38
2.170000 8.730000 3.540000 1.419862586e-38
2.180000 8.730000 3.550000 1.419862586e-38
2.190000 8.730000 3.560000 1.419862586e-38
2.200000 8.730000 3.570000 1.419862586e-38
2.220000 8.730000 3.580000 1.419862586e-38
2.230000 8.730000 3.590000 1.419862586e-38
2.250000 8.730000 3.600000 1.419862586e-38
2.270000 8.730000 3.610000 1.419862586e-38
2.280000 8.730000 3.620000 1.419862586e-38
2.300000 8.730000 3.630000 1.419862586e-38
2.320000 8.730000 3.640000 1.419862586e-38
2.330000 8.730000 3.650000 1.419862586e-38
2.350000 8.730000 3.660000 1.419862586e-38
2.370000 8.730000 3.670000 1.419862586e-38
2.390000 8.730000 3.680000 1.419862586e-38
2.410000 8.730000 3.690000 1.419862586e-38
2.430000 8.730000 3.700000 1.419862586e-38
2.450000 8.730000 3.710000 1.419862586e-38
2.470000 8.730000 3.720000 1.419862586e-38
2.500000 8.730000 3.730000 1.419862586e-38
2.430000 8.730000 3.770000 1.419862586e-38
2.410000 8.730000 3.790000 1.419862586e-38
2.410000 8.730000 3.800000 1.419862586e-38
2.410000 8.730000 3.820000 1.419862586e-38
2.440000 8.730000 3.830000 1.419862586e-38
2.520000 8.730000 3.830000 1.419862586e-38
2.910000 8.730000 3.810000 1.419862586e-38
3.920000 8.730000 3.740000 1.283167883e-38
4.070000 8.730000 3.740000 1.283167883e-38
2.610000 8.790000 3.810000 1.419862586e-38
2.620000 8.790000 3.800000 1.419862586e-38
2.610000 8.790000 3.780000 1.419862586e-38
2.620000 8.790000 3.770000 1.419862586e-38
2.690000 8.790000 3.770000 1.419862586e-38
3.160000 8.790000 3.820000 1.419862586e-38
3.180000 8.790000 3.820000 1.419862586e-38
3.220000 8.790000 3.820000 1.419862586e-38
3.250000 8.790000 3.820000 1.419862586e-38
3.270000 8.790000 3.810000 1.419862586e-38
3.300000 8.790000 3.810000 1.419862586e-38
3.320000 8.790000 3.800000 1.419862586e-38
3.340000 8.790000 3.800000 1.419862586e-38
3.350000 8.790000 3.790000 1.419862586e-38
3.370000 8.790000 3.790000 1.419862586e-38
3.390000 8.790000 3.780000 1.419862586e-38
3.410000 8.790000 3.780000 1.419862586e-38
3.420000 8.790000 3.770000 1.419862586e-38
3.440000 8.790000 3.770000 1.419862586e-38
3.460000 8.790000 3.770000 1.419862586e-38
3.470000 8.790000 3.760000 1.419862586e-38
3.490000 8.790000 3.760000 1.419862586e-38
3.510000 8.790000 3.750000 1.419862586e-38
3.510000 8.790000 3.750000 1.419862586e-38
3.530000 8.790000 3.740000 1.419862586e-38
3.550000 8.790000 3.740000 1.419862586e-38
3.560000 8.790000 3.730000 1.419862586e-38
3.560000 8.790000 3.720000 1.419862586e-38
3.580000 8.790000 3.720000 1.419862586e-38
3.600000 8.790000 3.720000 1.419862586e-38
3.620000 8.790000 3.720000 1.419862586e-38
3.650000 8.790000 3.720000 1.419862586e-38
3.670000 8.790000 3.720000 1.419862586e-38
3.690000 8.790000 3.720000 1.419862586e-38
3.710000 8.790000 3.720000 1.419862586e-38
3.720000 8.790000 3.720000 1.419862586e-38
3.740000 8.790000 3.720000 1.419862586e-38
3.760000 8.790000 3.720000 1.419862586e-38
3.770000 8.790000 3.720000 1.419862586e-38
3.790000 8.790000 3.710000 1.419862586e-38
3.800000 8.790000 3.720000 1.419862586e-38
3.830000 8.790000 3.720000 1.419862586e-38
3.840000 8.790000 3.710000 1.419862586e-38
3.850000 8.790000 3.710000 1.419862586e-38
3.880000 8.790000 3.720000 1.419862586e-38
3.890000 8.790000 3.720000 1.419862586e-38
3.890000 8.790000 3.710000 1.419862586e-38
3.910000 8.790000 3.710000 1.419862586e-38
3.940000 8.790000 3.720000 1.283167883e-38
3.950000 8.790000 3.750000 1.283167883e-38
4.050000 8.790000 3.760000 1.283167883e-38
4.050000 8.790000 3.750000 1.283167883e-38
4.050000 8.790000 3.740000 1.283167883e-38
4.050000 8.790000 3.730000 1.283167883e-38
3.890000 8.790000 3.710000 1.283167883e-38
3.880000 8.790000 3.560000 1.419862586e-38
3.890000 8.790000 3.560000 1.419862586e-38
3.900000 8.790000 3.560000 1.419862586e-38
3.940000 8.790000 3.670000 1.283167883e-38
4.110000 8.790000 3.680000 1.283167883e-38
4.110000 8.790000 3.670000 1.283167883e-38
4.110000 8.790000 3.660000 1.283167883e-38
4.110000 8.790000 3.650000 1.283167883e-38
4.110000 8.790000 3.640000 1.283167883e-38
4.090000 8.790000 3.600000 1.283167883e-38
4.080000 8.790000 3.590000 1.283167883e-38
4.010000 8.790000 3.580000 1.283167883e-38
4.000000 8.790000 3.470000 1.283167883e-38
4.010000 8.790000 3.470000 1.283167883e-38
4.010000 8.790000 3.460000 1.283167883e-38
4.020000 8.790000 3.450000 1.283167883e-38
4.020000 8.790000 3.450000 1.283167883e-38
4.020000 8.790000 3.440000 1.283167883e-38
4.030000 8.790000 3.440000 1.283167883e-38
4.040000 8.790000 3.430000 1.096967687e-38
4.050000 8.790000 3.430000 1.096967687e-38
4.050000 8.790000 3.420000 1.096967687e-38
4.060000 8.790000 3.410000 1.096967687e-38
4.060000 8.790000 3.410000 1.096967687e-38
4.070000 8.790000 3.400000 1.096967687e-38
4.080000 8.790000 3.400000 1.096967687e-38
4.080000 8.790000 3.390000 1.096967687e-38
4.090000 8.790000 3.390000 1.096967687e-38
4.100000 8.790000 3.380000 1.096967687e-38
4.100000 8.790000 3.370000 1.096967687e-38
4.110000 8.790000 3.370000 1.096967687e-38
4.110000 8.790000 3.360000 1.096967687e-38
4.110000 8.790000 3.350000 1.096967687e-38
4.120000 8.790000 3.350000 1.096967687e-38
4.130000 8.790000 3.340000 1.096967687e-38
4.130000 8.790000 3.330000 1.096967687e-38
4.140000 8.790000 3.320000 1.096967687e-38
4.140000 8.790000 3.310000 1.096967687e-38
4.140000 8.790000 3.310000 1.096967687e-38
4.160000 8.790000 3.310000 1.096967687e-38
4.160000 8.790000 3.290000 1.096967687e-38
4.160000 8.790000 3.290000 1.096967687e-38
4.170000 8.790000 3.280000 1.096967687e-38
4.180000 8.790000 3.280000 1.096967687e-38
4.180000 8.790000 3.270000 1.096967687e-38
4.190000 8.790000 3.260000 1.096967687e-38
4.190000 8.790000 3.250000 1.096967687e-38
4.190000 8.790000 3.240000 1.096967687e-38
4.200000 8.790000 3.230000 1.096967687e-38
4.210000 8.790000 3.230000 1.096967687e-38
4.210000 8.790000 3.220000 1.096967687e-38
4.220000 8.790000 3.210000 1.096967687e-38
4.220000 8.790000 3.200000 1.096967687e-38
4.220000 8.790000 3.200000 1.096967687e-38
4.230000 8.790000 3.180000 1.096967687e-38
4.230000 8.790000 3.180000 1.096967687e-38
4.240000 8.790000 3.170000 1.096967687e-38
4.250000 8.790000 3.160000 1.096967687e-38
4.250000 8.790000 3.160000 1.096967687e-38
4.250000 8.790000 3.140000 1.096967687e-38
4.260000 8.790000 3.130000 1.096967687e-38
4.260000 8.790000 3.120000 1.096967687e-38
4.270000 8.790000 3.110000 1.096967687e-38
4.270000 8.790000 3.100000 1.096967687e-38
4.280000 8.790000 3.090000 1.096967687e-38
4.280000 8.790000 3.080000 1.096967687e-38
4.290000 8.790000 3.080000 1.096967687e-38
4.290000 8.790000 3.060000 1.096967687e-38
4.290000 8.790000 3.040000 1.096967687e-38
4.300000 8.790000 3.040000 1.096967687e-38
4.310000 8.790000 3.030000 1.096967687e-38
4.310000 8.790000 3.020000 1.096967687e-38
4.320000 8.790000 3.000000 1.096967687e-38
4.320000 8.790000 2.980000 1.096967687e-38
4.320000 8.790000 2.980000 1.096967687e-38
4.330000 8.790000 2.960000 1.096967687e-38
4.330000 8.790000 2.950000 1.096967687e-38
4.340000 8.790000 2.930000 1.096967687e-38
4.340000 8.790000 2.920000 1.096967687e-38
4.340000 8.790000 2.900000 1.096967687e-38
4.350000 8.790000 2.890000 1.096967687e-38
4.350000 8.790000 2.870000 1.096967687e-38
4.350000 8.790000 2.850000 1.096967687e-38
4.360000 8.790000 2.830000 1.096967687e-38
4.360000 8.790000 2.810000 1.096967687e-38
4.360000 8.790000 2.790000 1.096967687e-38
4.370000 8.790000 2.770000 1.096967687e-38
4.370000 8.790000 2.760000 1.096967687e-38
4.370000 8.790000 2.730000 1.096967687e-38
4.380000 8.790000 2.720000 1.096967687e-38
4.380000 8.790000 2.690000 1.096967687e-38
4.380000 8.790000 2.660000 1.096967687e-38
4.380000 8.790000 2.620000 1.096967687e-38
4.390000 8.790000 2.590000 1.096967687e-38
4.380000 8.790000 2.550000 1.096967687e-38
4.260000 8.790000 1.780000 1.096967687e-38
4.240000 8.790000 1.770000 1.096967687e-38
4.260000 8.790000 1.780000 1.096967687e-38
4.280000 8.790000 1.780000 1.096967687e-38
4.300000 8.790000 1.790000 1.096967687e-38
4.320000 8.790000 1.780000 1.096967687e-38
4.330000 8.790000 1.760000 1.096967687e-38
4.340000 8.790000 1.750000 1.096967687e-38
4.360000 8.790000 1.740000 1.096967687e-38
4.370000 8.790000 1.720000 1.096967687e-38
4.370000 8.790000 1.500000 1.096967687e-38
4.380000 8.790000 1.150000 1.096967687e-38
4.380000 8.790000 0.770000 1.096967687e-38
2.140000 8.790000 1.290000 1.419862586e-38
2.130000 8.790000 3.510000 1.419862586e-38
2.140000 8.790000 3.520000 1.419862586e-38
2.150000 8.790000 3.530000 1.419862586e-38
2.170000 8.790000 3.540000 1.419862586e-38
2.170000 8.790000 3.550000 1.419862586e-38
2.190000 8.790000 3.560000 1.419862586e-38
2.210000 8.790000 3.570000 1.419862586e-38
2.220000 8.790000 3.580000 1.419862586e-38
2.240000 8.790000 3.590000 1.419862586e-38
2.250000 8.790000 3.600000 1.419862586e-38
2.260000 8.790000 3.610000 1.419862586e-38
2.280000 8.790000 3.620000 1.419862586e-38
2.300000 8.790000 3.630000 1.419862586e-38
2.320000 8.790000 3.640000 1.419862586e-38
2.330000 8.790000 3.650000 1.419862586e-38
2.350000 8.790000 3.660000 1.419862586e-38
2.380000 8.790000 3.670000 1.419862586e-38
2.390000 8.790000 3.680000 1.419862586e-38
2.420000 8.790000 3.690000 1.419862586e-38
2.430000 8.790000 3.700000 1.419862586e-38
2.460000 8.790000 3.710000 1.419862586e-38
2.480000 8.790000 3.720000 1.419862586e-38
2.520000 8.790000 3.730000 1.419862586e-38
2.410000 8.790000 3.770000 1.419862586e-38
2.400000 8.790000 3.790000 1.419862586e-38
2.410000 8.790000 3.800000 1.419862586e-38
2.410000 8.790000 3.820000 1.419862586e-38
2.440000 8.790000 3.830000 1.419862586e-38
2.540000 8.790000 3.820000 1.419862586e-38
2.920000 8.790000 3.810000 1.419862586e-38
3.920000 8.790000 3.740000 1.419862586e-38
4.060000 8.790000 3.740000 1.283167883e-38
2.620000 8.850000 3.810000 1.419862586e-38
2.610000 8.850000 3.800000 1.419862586e-38
2.610000 8.850000 3.780000 1.419862586e-38
2.610000 8.850000 3.770000 1.419862586e-38
2.650000 8.850000 3.760000 1.419862586e-38
3.120000 8.850000 3.820000 1.419862586e-38
3.160000 8.850000 3.820000 1.419862586e-38
3.200000 8.850000 3.820000 1.419862586e-38
3.220000 8.850000 3.820000 1.419862586e-38
3.250000 8.850000 3.820000 1.419862586e-38
3.270000 8.850000 3.810000 1.419862586e-38
3.300000 8.850000 3.810000 1.419862586e-38
3.310000 8.850000 3.800000 1.419862586e-38
3.330000 8.850000 3.800000 1.419862586e-38
3.350000 8.850000 3.790000 1.419862586e-38
3.370000 8.850000 3.790000 1.419862586e-38
3.380000 8.850000 3.780000 1.419862586e-38
3.410000 8.850000 3.780000 1.419862586e-38
3.420000 8.850000 3.770000 1.419862586e-38
3.440000 8.850000 3.770000 1.419862586e-38
3.460000 8.850000 3.770000 1.419862586e-38
3.470000 8.850000 3.760000 1.419862586e-38
3.490000 8.850000 3.760000 1.419862586e-38
3.500000 8.850000 3.750000 1.419862586e-38
3.510000 8.850000 3.740000 1.419862586e-38
3.530000 8.850000 3.740000 1.419862586e-38
3.540000 8.850000 3.730000 1.419862586e-38
3.560000 8.850000 3.730000 1.419862586e-38
3.570000 8.850000 3.730000 1.419862586e-38
3.580000 8.850000 3.720000 1.419862586e-38
3.590000 8.850000 3.720000 1.419862586e-38
3.620000 8.850000 3.720000 1.419862586e-38
3.630000 8.850000 3.710000 1.419862586e-38
3.660000 8.850000 3.720000 1.419862586e-38
3.690000 8.850000 3.720000 1.419862586e-38
3.700000 8.850000 3.720000 1.419862586e-38
3.720000 8.850000 3.720000 1.419862586e-38
3.730000 8.850000 3.720000 1.419862586e-38
3.750000 8.850000 3.710000 1.419862586e-38
3.770000 8.850000 3.720000 1.419862586e-38
3.790000 8.850000 3.710000 1.419862586e-38
3.800000 8.850000 3.710000 1.419862586e-38
3.820000 8.850000 3.720000 1.419862586e-38
3.850000 8.850000 3.720000 1.419862586e-38
3.860000 8.850000 3.720000 1.419862586e-38
3.870000 8.850000 3.710000 1.419862586e-38
3.890000 8.850000 3.720000 1.419862586e-38
3.900000 8.850000 3.710000 1.419862586e-38
3.900000 8.850000 3.710000 1.419862586e-38
3.920000 8.850000 3.750000 1.419862586e-38
4.050000 8.850000 3.760000 1.283167883e-38
4.050000 8.850000 3.750000 1.283167883e-38
4.050000 8.850000 3.740000 1.283167883e-38
4.050000 8.850000 3.730000 1.283167883e-38
3.890000 8.850000 3.710000 1.283167883e-38
3.880000 8.850000 3.560000 1.419862586e-38
3.890000 8.850000 3.560000 1.419862586e-38
3.890000 8.850000 3.550000 1.419862586e-38
4.110000 8.850000 3.680000 1.283167883e-38
4.120000 8.850000 3.680000 1.283167883e-38
4.110000 8.850000 3.660000 1.283167883e-38
4.110000 8.850000 3.650000 1.283167883e-38
4.090000 8.850000 3.610000 1.283167883e-38
4.080000 8.850000 3.590000 1.283167883e-38
4.010000 8.850000 3.570000 1.283167883e-38
3.990000 8.850000 3.470000 1.283167883e-38
4.010000 8.850000 3.470000 1.283167883e-38
4.010000 8.850000 3.460000 1.283167883e-38
4.020000 8.850000 3.450000 1.283167883e-38
4.010000 8.850000 3.440000 1.283167883e-38
4.020000 8.850000 3.430000 1.096967687e-38
4.030000 8.850000 3.430000 1.096967687e-38
4.040000 8.850000 3.430000 1.096967687e-38
4.040000 8.850000 3.420000 1.096967687e-38
4.050000 8.850000 3.420000 1.096967687e-38
4.060000 8.850000 3.410000 1.096967687e-38
4.060000 8.850000 3.400000 1.096967687e-38
4.060000 8.850000 3.390000 1.096967687e-38
4.080000 8.850000 3.400000 1.096967687e-38
4.080000 8.850000 3.390000 1.096967687e-38
4.080000 8.850000 3.380000 1.096967687e-38
4.090000 8.850000 3.370000 1.096967687e-38
4.090000 8.850000 3.370000 1.096967687e-38
4.110000 8.850000 3.370000 1.096967687e-38
4.110000 8.850000 3.360000 1.096967687e-38
4.110000 8.850000 3.350000 1.096967687e-38
4.120000 8.850000 3.340000 1.096967687e-38
4.120000 8.850000 3.330000 1.096967687e-38
4.130000 8.850000 3.330000 1.096967687e-38
4.140000 8.850000 3.330000 1.096967687e-38
4.140000 8.850000 3.310000 1.096967687e-38
4.140000 8.850000 3.300000 1.096967687e-38
4.150000 8.850000 3.300000 1.096967687e-38
4.150000 8.850000 3.290000 1.096967687e-38
4.160000 8.850000 3.290000 1.096967687e-38
4.170000 8.850000 3.280000 1.096967687e-38
4.170000 8.850000 3.260000 1.096967687e-38
4.170000 8.850000 3.260000 1.096967687e-38
4.180000 8.850000 3.250000 1.096967687e-38
4.180000 8.850000 3.240000 1.096967687e-38
4.200000 8.850000 3.250000 1.096967687e-38
4.200000 8.850000 3.230000 1.096967687e-38
4.200000 8.850000 3.220000 1.096967687e-38
4.210000 8.850000 3.220000 1.096967687e-38
4.210000 8.850000 3.210000 1.096967687e-38
4.220000 8.850000 3.200000 1.096967687e-38
4.220000 8.850000 3.190000 1.096967687e-38
4.230000 8.850000 3.180000 1.096967687e-38
4.230000 8.850000 3.170000 1.096967687e-38
4.240000 8.850000 3.170000 1.096967687e-38
4.240000 8.850000 3.160000 1.096967687e-38
4.250000 8.850000 3.150000 1.096967687e-38
4.250000 8.850000 3.140000 1.096967687e-38
4.250000 8.850000 3.130000 1.096967687e-38
4.260000 8.850000 3.120000 1.096967687e-38
4.270000 8.850000 3.110000 1.096967687e-38
4.270000 8.850000 3.100000 1.096967687e-38
4.270000 8.850000 3.080000 1.096967687e-38
4.280000 8.850000 3.070000 1.096967687e-38
4.280000 8.850000 3.070000 1.096967687e-38
4.290000 8.850000 3.050000 1.096967687e-38
4.300000 8.850000 3.050000 1.096967687e-38
4.300000 8.850000 3.030000 1.096967687e-38
4.310000 8.850000 3.030000 1.096967687e-38
4.310000 8.850000 3.010000 1.096967687e-38
4.310000 8.850000 2.990000 1.096967687e-38
4.310000 8.850000 2.970000 1.096967687e-38
4.320000 8.850000 2.960000 1.096967687e-38
4.320000 8.850000 2.950000 1.096967687e-38
4.330000 8.850000 2.950000 1.096967687e-38
4.330000 8.850000 2.930000 1.096967687e-38
4.330000 8.850000 2.910000 1.096967687e-38
4.340000 8.850000 2.890000 1.096967687e-38
4.340000 8.850000 2.870000 1.096967687e-38
4.350000 8.850000 2.860000 1.096967687e-38
4.350000 8.850000 2.840000 1.096967687e-38
4.360000 8.850000 2.830000 1.096967687e-38
4.360000 8.850000 2.810000 1.096967687e-38
4.360000 8.850000 2.780000 1.096967687e-38
4.370000 8.850000 2.770000 1.096967687e-38
4.370000 8.850000 2.740000 1.096967687e-38
4.370000 8.850000 2.720000 1.096967687e-38
4.380000 8.850000 2.710000 1.096967687e-38
4.380000 8.850000 2.670000 1.096967687e-38
4.380000 8.850000 2.650000 1.096967687e-38
4.380000 8.850000 2.600000 1.096967687e-38
4.380000 8.850000 2.570000 1.096967687e-38
4.250000 8.850000 1.780000 1.096967687e-38
4.230000 8.850000 1.770000 1.096967687e-38
4.250000 8.850000 1.780000 1.096967687e-38
4.260000 8.850000 1.780000 1.096967687e-38
4.280000 8.850000 1.790000 1.096967687e-38
4.300000 8.850000 1.790000 1.096967687e-38
4.310000 8.850000 1.770000 1.096967687e-38
4.330000 8.850000 1.760000 1.096967687e-38
4.340000 8.850000 1.750000 1.096967687e-38
4.360000 8.850000 1.730000 1.096967687e-38
2.160000 8.850000 1.710000 1.096967687e-38
2.150000 8.850000 3.530000 1.419862586e-38
2.160000 8.850000 3.540000 1.419862586e-38
2.170000 8.850000 3.550000 1.419862586e-38
2.180000 8.850000 3.570000 1.419862586e-38
2.200000 8.850000 3.570000 1.419862586e-38
2.220000 8.850000 3.580000 1.419862586e-38
2.230000 8.850000 3.590000 1.419862586e-38
2.240000 8.850000 3.600000 1.419862586e-38
2.260000 8.850000 3.620000 1.419862586e-38
2.280000 8.850000 3.620000 1.419862586e-38
2.300000 8.850000 3.630000 1.419862586e-38
2.310000 8.850000 3.640000 1.419862586e-38
2.330000 8.850000 3.650000 1.419862586e-38
2.350000 8.850000 3.660000 1.419862586e-38
2.370000 8.850000 3.670000 1.419862586e-38
2.390000 8.850000 3.680000 1.419862586e-38
2.400000 8.850000 3.690000 1.419862586e-38
2.430000 8.850000 3.700000 1.419862586e-38
2.460000 8.850000 3.710000 1.419862586e-38
2.480000 8.850000 3.720000 1.419862586e-38
2.500000 8.850000 3.730000 1.419862586e-38
2.430000 8.850000 3.770000 1.419862586e-38
2.410000 8.850000 3.790000 1.419862586e-38
2.410000 8.850000 3.800000 1.419862586e-38
2.410000 8.850000 3.820000 1.419862586e-38
2.430000 8.850000 3.830000 1.419862586e-38
2.490000 8.850000 3.830000 1.419862586e-38
2.890000 8.850000 3.820000 1.419862586e-38
2.970000 8.850000 3.750000 1.419862586e-38
3.930000 8.850000 3.740000 1.419862586e-38
3.980000 8.850000 3.750000 1.283167883e-38
3.930000 8.850000 3.780000 1.283167883e-38
3.160000 8.930000 3.810000 1.419862586e-38
3.200000 8.930000 3.810000 1.419862586e-38
3.220000 8.930000 3.810000 1.419862586e-38
3.260000 8.930000 3.810000 1.419862586e-38
3.270000 8.930000 3.800000 1.419862586e-38
3.300000 8.930000 3.800000 1.419862586e-38
3.320000 8.930000 3.790000 1.419862586e-38
3.330000 8.930000 3.790000 1.419862586e-38
3.350000 8.930000 3.780000 1.419862586e-38
3.370000 8.930000 3.780000 1.419862586e-38
3.390000 8.930000 3.770000 1.419862586e-38
3.410000 8.930000 3.770000 1.419862586e-38
3.430000 8.930000 3.760000 1.419862586e-38
3.450000 8.930000 3.760000 1.419862586e-38
3.460000 8.930000 3.760000 1.419862586e-38
3.480000 8.930000 3.750000 1.419862586e-38
3.480000 8.930000 3.740000 1.419862586e-38
3.500000 8.930000 3.740000 1.419862586e-38
3.520000 8.930000 3.740000 1.419862586e-38
3.540000 8.930000 3.730000 1.419862586e-38
3.550000 8.930000 3.730000 1.419862586e-38
3.550000 8.930000 3.720000 1.419862586e-38
3.570000 8.930000 3.710000 1.419862586e-38
3.580000 8.930000 3.710000 1.419862586e-38
3.600000 8.930000 3.710000 1.419862586e-38
3.610000 8.930000 3.700000 1.419862586e-38
3.640000 8.930000 3.710000 1.419862586e-38
3.660000 8.930000 3.710000 1.419862586e-38
3.690000 8.930000 3.710000 1.419862586e-38
3.710000 8.930000 3.710000 1.419862586e-38
3.730000 8.930000 3.720000 1.419862586e-38
3.740000 8.930000 3.710000 1.419862586e-38
3.770000 8.930000 3.720000 1.419862586e-38
3.790000 8.930000 3.710000 1.419862586e-38
