# File_name:transit_20240131-141512_c502_id1.pcd
# Mode:normal
# Main_id:1
# Lane1 trs_id:1 lane_min_x:300 lane_max_x:3900
# Time_begin:2024-01-31T14:15:12 Occupancy:11836ms
# Height:4020mm Width:2448mm Length:17240mm
# Speed:0km/h Direction:A
# Axles:0
# Class:Semitruck Class_id:8 Class_cmk:502
# Offset X:2081mm Y:15831mm Z:3555mm
VERSION .7
FIELDS x y z rgb
SIZE 4 4 4 4
TYPE F F F F
COUNT 1 1 1 1
WIDTH 1680
HEIGHT 1
VIEWPOINT 0 0 1 0 0 0 0
POINTS 1680
DATA ascii
2.84 24.3 2.82 18313728
2.95 24.3 2.82 18313984
0.86 24.03 2.14 16216575
0.95 24.03 2.2 18313728
1.14 24.03 2.27 18313728
1.35 24.03 2.31 5066239
1.49 24.03 2.31 5066239
1.74 24.03 2.35 5066239
2.05 24.03 2.36 5066239
2.26 24.03 2.36 5066239
2.52 24.03 2.37 5066239
2.24 24.03 2.4 5066239
2.37 24.03 2.4 5066239
2.69 24.03 2.38 18313984
3.04 24.03 2.31 18313984
3.04 24.03 2.38 16216831
0.81 23.77 1.89 16216575
1.14 23.77 2.18 16216575
0.98 23.77 2.23 16216575
0.84 23.77 3.19 18313728
0.96 23.77 3.24 18313728
1.37 23.77 3.35 5066239
1.57 23.77 3.35 5066239
1.79 23.77 3.39 5066239
2.6 23.77 3.39 5066239
2.8 23.77 3.39 5066239
1.77 23.77 3.4 5066239
2.0 23.77 3.4 5066239
2.21 23.77 3.4 5066239
2.57 23.77 3.4 5066239
3.0 23.77 3.35 18313984
3.16 23.77 2.35 16216831
3.0 23.77 2.35 16216831
3.19 23.77 2.35 16216831
3.21 23.77 2.35 16216831
3.0 23.77 2.47 16216831
3.02 23.77 2.58 16216831
2.96 23.77 2.63 16216831
3.02 23.77 2.63 16216831
1.3 23.77 2.18 5066239
1.5 23.77 2.18 5066239
1.72 23.77 2.15 5066239
1.94 23.77 2.15 5066239
2.14 23.77 2.17 5066239
2.34 23.77 2.17 5066239
2.42 23.77 2.17 5066239
1.34 23.77 3.35 5066239
0.54 23.5 2.39 16216575
0.7 23.5 2.51 16216575
0.64 23.5 2.6 16216575
0.76 23.5 2.64 16216575
0.82 23.5 2.98 16216575
0.84 23.5 3.18 16216575
0.9 23.5 3.37 18313728
0.91 23.5 3.59 18313728
0.88 23.5 3.59 18313728
1.09 23.5 3.39 5066239
1.3 23.5 3.39 5066239
1.49 23.5 3.38 5066239
1.69 23.5 3.35 5066239
1.89 23.5 3.35 5066239
1.27 23.5 3.4 5066239
1.32 23.5 3.4 5066239
1.07 23.5 3.61 5066239
1.3 23.5 3.63 5066239
1.49 23.5 3.64 5066239
1.69 23.5 3.65 5066239
1.89 23.5 3.65 5066239
2.1 23.5 3.65 5066239
2.29 23.5 3.65 5066239
2.49 23.5 3.64 5066239
2.7 23.5 3.63 5066239
2.9 23.5 3.59 18313984
2.99 23.5 3.59 18313984
2.89 23.5 3.4 18313984
3.09 23.5 1.48 16216831
3.07 23.5 1.48 16216831
3.07 23.5 2.17 16216831
3.04 23.5 2.2 16216831
3.05 23.5 2.64 16216831
3.27 23.5 2.74 16216831
3.05 23.5 2.85 16216831
3.11 23.5 2.86 16216831
3.04 23.5 3.0 16216831
3.02 23.5 3.18 16216831
2.25 23.5 3.18 5066239
2.5 23.5 3.08 5066239
2.56 23.5 3.08 5066239
2.09 23.5 3.22 5066239
2.16 23.5 3.59 5066239
0.94 23.23 2.12 16216575
0.81 23.23 2.28 16216575
0.82 23.23 2.98 16216575
0.84 23.23 3.18 16216575
0.87 23.23 3.38 18313728
0.96 23.23 3.59 18313728
0.96 23.23 3.65 18313728
1.16 23.23 3.65 18313728
2.35 23.23 3.58 5066239
2.53 23.23 3.56 5066239
2.74 23.23 3.56 5066239
1.33 23.23 3.64 5066239
1.52 23.23 3.65 5066239
1.72 23.23 3.67 5066239
1.95 23.23 3.67 5066239
2.16 23.23 3.67 5066239
2.34 23.23 3.67 5066239
2.55 23.23 3.66 5066239
2.75 23.23 3.65 5066239
2.96 23.23 3.54 18313984
3.01 23.23 3.54 18313984
2.94 23.23 3.4 18313984
3.11 23.23 1.46 16216831
3.09 23.23 1.46 16216831
3.16 23.23 2.8 16216831
3.25 23.23 2.87 16216831
3.06 23.23 3.01 16216831
3.04 23.23 3.54 16216831
0.79 22.97 1.37 16216575
0.78 22.97 2.13 16216575
0.96 22.97 2.24 16216575
0.98 22.97 2.24 16216575
0.83 22.97 2.98 16216575
0.86 22.97 3.18 16216575
0.88 22.97 3.39 18313728
0.96 22.97 3.59 18313728
0.97 22.97 3.62 18313728
1.15 22.97 3.67 18313728
1.36 22.97 3.67 5066239
1.54 22.97 3.67 5066239
1.74 22.97 3.69 5066239
1.95 22.97 3.69 5066239
2.14 22.97 3.69 5066239
2.35 22.97 3.69 5066239
2.57 22.97 3.67 5066239
2.97 22.97 3.56 18313984
3.03 22.97 3.56 18313984
2.77 22.97 3.6 18313984
2.96 22.97 3.6 18313984
2.98 22.97 3.6 18313984
3.12 22.97 1.33 16216831
3.11 22.97 1.33 16216831
3.12 22.97 2.11 16216831
3.11 22.97 2.24 16216831
3.07 22.97 2.44 16216831
3.07 22.97 2.61 16216831
3.09 22.97 2.86 16216831
3.07 22.97 3.0 16216831
3.06 22.97 3.56 16216831
0.79 22.7 2.18 16216575
0.82 22.7 2.35 16216575
0.85 22.7 2.55 16216575
0.85 22.7 2.6 16216575
0.84 22.7 2.96 16216575
0.86 22.7 3.16 16216575
0.89 22.7 3.37 18313728
0.96 22.7 3.59 18313728
0.98 22.7 3.69 18313728
1.17 22.7 3.69 18313728
1.38 22.7 3.69 5066239
1.56 22.7 3.69 5066239
1.75 22.7 3.69 5066239
1.97 22.7 3.69 5066239
2.17 22.7 3.69 5066239
2.36 22.7 3.69 5066239
2.58 22.7 3.68 5066239
3.03 22.7 3.68 18313984
2.78 22.7 3.64 18313984
2.98 22.7 3.6 18313984
3.03 22.7 3.6 18313984
3.12 22.7 2.21 16216831
3.13 22.7 2.21 16216831
3.1 22.7 2.4 16216831
3.1 22.7 2.64 16216831
3.11 22.7 2.86 16216831
3.08 22.7 3.02 16216831
3.07 22.7 3.68 16216831
0.78 22.41 1.26 16216575
0.82 22.41 2.34 16216575
0.83 22.41 2.55 16216575
0.84 22.41 2.73 16216575
0.85 22.41 2.99 16216575
0.87 22.41 3.19 16216575
0.89 22.41 3.39 16216575
0.97 22.41 3.59 18313728
0.97 22.41 3.61 18313728
1.14 22.41 3.75 18313728
1.36 22.41 3.77 5066239
1.54 22.41 3.77 5066239
1.74 22.41 3.77 5066239
1.96 22.41 3.77 5066239
2.17 22.41 3.77 5066239
2.37 22.41 3.77 5066239
2.55 22.41 3.75 5066239
3.03 22.41 3.74 18313984
2.77 22.41 3.62 18313984
2.97 22.41 3.62 18313984
2.98 22.41 3.6 18313984
3.13 22.41 2.26 16216831
3.14 22.41 2.26 16216831
3.12 22.41 2.41 16216831
3.12 22.41 2.63 16216831
3.11 22.41 2.81 16216831
3.09 22.41 3.04 16216831
3.07 22.41 3.74 16216831
0.8 22.13 2.33 16216575
0.82 22.13 2.59 16216575
0.82 22.13 2.77 16216575
0.85 22.13 2.98 16216575
0.87 22.13 3.19 16216575
0.9 22.13 3.39 16216575
0.96 22.13 3.59 18313728
0.98 22.13 3.65 18313728
1.18 22.13 3.77 18313728
1.19 22.13 3.77 18313728
1.38 22.13 3.77 5066239
1.59 22.13 3.77 5066239
1.78 22.13 3.76 5066239
1.97 22.13 3.76 5066239
2.19 22.13 3.75 5066239
2.36 22.13 3.72 5066239
2.58 22.13 3.72 5066239
1.39 22.13 3.85 5066239
1.58 22.13 3.86 5066239
1.77 22.13 3.86 5066239
1.98 22.13 3.86 5066239
2.19 22.13 3.86 5066239
2.38 22.13 3.85 5066239
2.59 22.13 3.85 5066239
2.99 22.13 3.69 18313984
2.76 22.13 3.67 18313984
2.98 22.13 3.67 18313984
3.03 22.13 3.67 18313984
2.78 22.13 3.8 18313984
2.9 22.13 3.8 18313984
3.14 22.13 2.23 16216831
3.13 22.13 2.23 16216831
3.12 22.13 2.41 16216831
3.13 22.13 2.6 16216831
3.11 22.13 2.82 16216831
3.09 22.13 3.0 16216831
3.07 22.13 3.2 16216831
3.04 22.13 3.69 16216831
0.79 21.84 1.19 16216575
0.82 21.84 1.35 16216575
0.81 21.84 2.36 16216575
0.82 21.84 2.57 16216575
0.84 21.84 2.72 16216575
1.18 21.84 2.78 16216575
0.85 21.84 2.98 16216575
0.97 21.84 3.01 16216575
1.17 21.84 3.02 16216575
0.81 21.84 3.2 16216575
0.85 21.84 3.42 16216575
0.98 21.84 3.62 18313728
1.06 21.84 3.76 18313728
0.97 21.84 3.92 18313728
1.15 21.84 3.92 18313728
1.34 21.84 3.84 5066239
1.58 21.84 3.84 5066239
1.77 21.84 3.84 5066239
1.97 21.84 3.83 5066239
2.18 21.84 3.82 5066239
2.36 21.84 3.82 5066239
2.57 21.84 3.82 5066239
2.98 21.84 3.65 18313984
3.01 21.84 3.65 18313984
2.77 21.84 3.92 18313984
2.98 21.84 3.92 18313984
3.0 21.84 3.8 18313984
3.15 21.84 0.89 16216831
3.12 21.84 0.89 16216831
3.13 21.84 1.2 16216831
3.14 21.84 2.25 16216831
3.13 21.84 2.42 16216831
3.13 21.84 2.6 16216831
3.12 21.84 2.8 16216831
3.1 21.84 3.02 16216831
3.09 21.84 3.2 16216831
3.06 21.84 3.2 16216831
1.24 21.84 2.86 5066239
1.2 21.84 2.86 5066239
1.28 21.84 3.65 5066239
0.7 21.56 1.06 16216575
0.7 21.56 1.22 16216575
0.72 21.56 2.2 16216575
0.88 21.56 2.31 16216575
0.73 21.56 2.44 16216575
0.72 21.56 2.61 16216575
0.72 21.56 2.82 16216575
0.7 21.56 3.0 16216575
0.73 21.56 3.23 16216575
0.9 21.56 3.59 18313728
0.94 21.56 3.7 18313728
1.06 21.56 3.7 18313728
2.6 21.56 3.78 5066239
2.35 21.56 3.78 5066239
1.23 21.56 3.89 5066239
2.45 21.56 3.89 5066239
2.66 21.56 3.88 5066239
2.86 21.56 3.88 18313984
2.98 21.56 3.88 18313984
3.15 21.56 2.47 16216831
3.16 21.56 0.77 16216831
2.38 21.56 0.77 5066239
2.5 21.56 0.77 5066239
2.24 21.56 0.83 5066239
2.43 21.56 0.83 5066239
2.49 21.56 0.83 5066239
2.14 21.56 1.06 5066239
2.15 21.56 1.21 5066239
1.6 21.56 1.82 5066239
1.31 21.56 2.07 5066239
2.44 21.56 2.12 5066239
1.32 21.56 2.2 5066239
2.46 21.56 2.21 5066239
2.47 21.56 2.33 5066239
1.24 21.56 2.4 5066239
1.32 21.56 2.41 5066239
2.46 21.56 2.46 5066239
2.47 21.56 2.46 5066239
1.34 21.56 2.6 5066239
2.25 21.56 2.68 5066239
2.45 21.56 2.68 5066239
2.47 21.56 2.68 5066239
2.26 21.56 2.95 5066239
2.29 21.56 2.98 5066239
2.43 21.56 3.18 5066239
2.46 21.56 3.23 5066239
2.58 21.56 3.88 5066239
0.84 21.27 0.74 16216575
0.85 21.27 0.84 16216575
1.04 21.27 0.84 16216575
0.85 21.27 3.99 18313728
1.04 21.27 3.99 18313728
0.67 21.27 3.98 18313728
1.25 21.27 3.98 5066239
1.42 21.27 3.98 5066239
1.64 21.27 3.98 5066239
1.86 21.27 3.98 5066239
2.06 21.27 3.98 5066239
2.25 21.27 3.97 5066239
2.46 21.27 3.97 5066239
2.66 21.27 3.97 5066239
2.86 21.27 3.97 5066239
3.16 21.27 3.96 18313984
3.06 21.27 3.81 18313984
3.18 21.27 3.81 18313984
3.15 21.27 0.76 16216831
3.37 21.27 0.76 16216831
3.04 21.27 0.82 16216831
3.14 21.27 0.82 16216831
3.27 21.27 0.98 16216831
3.23 21.27 1.16 16216831
3.2 21.27 1.37 16216831
3.13 21.27 1.43 16216831
3.22 21.27 1.76 16216831
3.22 21.27 1.95 16216831
3.21 21.27 2.18 16216831
3.13 21.27 2.28 16216831
3.12 21.27 2.41 16216831
3.13 21.27 2.68 16216831
3.14 21.27 2.8 16216831
3.14 21.27 3.04 16216831
3.14 21.27 3.21 16216831
3.15 21.27 3.21 16216831
1.25 21.27 0.85 5066239
1.44 21.27 0.85 5066239
1.64 21.27 0.85 5066239
1.7 21.27 0.85 5066239
2.84 21.27 0.86 5066239
2.14 21.27 1.68 5066239
2.08 21.27 1.84 5066239
1.28 21.27 2.17 5066239
1.29 21.27 2.34 5066239
1.29 21.27 2.56 5066239
1.46 21.27 2.68 5066239
1.51 21.27 3.96 5066239
0.68 20.98 3.34 16216575
0.68 20.98 3.43 16216575
0.66 20.98 3.68 18313728
0.83 20.98 3.98 18313728
1.03 20.98 3.98 18313728
1.21 20.98 3.98 5066239
1.42 20.98 3.98 5066239
1.61 20.98 3.98 5066239
1.81 20.98 3.98 5066239
2.0 20.98 3.98 5066239
2.23 20.98 3.98 5066239
2.42 20.98 3.97 5066239
2.63 20.98 3.97 5066239
3.19 20.98 3.96 18313984
2.82 20.98 3.96 18313984
3.02 20.98 3.96 18313984
3.18 20.98 3.8 18313984
3.13 20.98 2.62 16216831
3.15 20.98 2.62 16216831
3.16 20.98 2.8 16216831
3.16 20.98 3.05 16216831
3.17 20.98 3.23 16216831
3.17 20.98 3.96 16216831
0.69 20.68 3.39 16216575
0.69 20.68 3.59 18313728
0.69 20.68 3.71 18313728
0.85 20.68 3.96 18313728
1.04 20.68 3.96 18313728
1.22 20.68 3.96 5066239
1.43 20.68 3.96 5066239
1.63 20.68 3.97 5066239
1.85 20.68 3.97 5066239
2.05 20.68 3.98 5066239
2.23 20.68 3.98 5066239
2.45 20.68 3.96 5066239
2.64 20.68 3.96 5066239
3.2 20.68 3.96 18313984
2.83 20.68 3.95 18313984
3.05 20.68 3.95 18313984
3.2 20.68 3.81 18313984
3.18 20.68 2.8 16216831
3.18 20.68 2.8 16216831
3.18 20.68 3.0 16216831
3.19 20.68 3.24 16216831
3.18 20.68 3.96 16216831
0.71 20.41 3.17 16216575
0.71 20.41 3.39 16216575
0.71 20.41 3.57 16216575
0.7 20.41 3.74 18313728
0.83 20.41 3.98 18313728
1.03 20.41 3.98 18313728
1.26 20.41 3.98 5066239
1.46 20.41 3.98 5066239
1.67 20.41 3.98 5066239
1.87 20.41 3.98 5066239
2.06 20.41 3.98 5066239
2.26 20.41 3.98 5066239
2.45 20.41 3.97 5066239
2.66 20.41 3.96 5066239
3.21 20.41 3.96 18313984
2.87 20.41 3.95 18313984
3.07 20.41 3.95 18313984
3.21 20.41 3.81 18313984
3.18 20.41 2.82 16216831
3.18 20.41 2.82 16216831
3.19 20.41 3.03 16216831
3.2 20.41 3.22 16216831
3.2 20.41 3.96 16216831
0.73 20.14 3.38 16216575
0.73 20.14 3.51 16216575
0.72 20.14 3.77 18313728
0.86 20.14 3.99 18313728
1.09 20.14 3.99 18313728
0.81 20.14 3.99 18313728
1.27 20.14 3.98 5066239
1.47 20.14 3.98 5066239
1.66 20.14 3.98 5066239
1.87 20.14 3.98 5066239
2.09 20.14 3.98 5066239
2.26 20.14 3.98 5066239
2.48 20.14 3.98 5066239
2.69 20.14 3.98 5066239
1.56 20.14 4.0 5066239
1.85 20.14 4.0 5066239
2.3 20.14 4.0 5066239
3.22 20.14 3.97 18313984
2.89 20.14 3.95 18313984
3.08 20.14 3.95 18313984
3.23 20.14 3.85 18313984
3.19 20.14 2.81 16216831
3.2 20.14 2.81 16216831
3.2 20.14 3.0 16216831
3.2 20.14 3.2 16216831
3.21 20.14 3.97 16216831
0.75 19.84 3.1 16216575
0.75 19.84 3.36 16216575
0.74 19.84 3.55 16216575
0.74 19.84 3.79 18313728
0.88 19.84 3.98 18313728
1.09 19.84 3.99 18313728
0.76 19.84 3.99 18313728
1.27 19.84 3.99 5066239
1.49 19.84 3.99 5066239
1.68 19.84 3.99 5066239
1.88 19.84 3.99 5066239
2.09 19.84 3.99 5066239
2.29 19.84 3.98 5066239
2.49 19.84 3.98 5066239
2.7 19.84 3.98 5066239
2.18 19.84 3.98 5066239
3.25 19.84 3.98 18313984
2.88 19.84 3.95 18313984
3.1 19.84 3.95 18313984
3.25 19.84 3.84 18313984
3.23 19.84 2.8 16216831
3.23 19.84 2.8 16216831
3.23 19.84 3.01 16216831
3.24 19.84 3.21 16216831
3.24 19.84 3.98 16216831
0.77 19.56 2.97 16216575
0.76 19.56 3.04 16216575
0.76 19.56 3.37 16216575
0.76 19.56 3.59 16216575
0.75 19.56 3.78 18313728
0.85 19.56 3.99 18313728
1.1 19.56 3.99 18313728
0.82 19.56 3.99 18313728
1.28 19.56 3.99 5066239
1.39 19.56 3.99 5066239
1.69 19.56 3.99 5066239
1.9 19.56 3.99 5066239
2.1 19.56 3.99 5066239
2.3 19.56 3.98 5066239
2.49 19.56 3.98 5066239
2.69 19.56 3.98 5066239
1.49 19.56 4.0 5066239
1.67 19.56 4.0 5066239
1.77 19.56 4.0 5066239
3.26 19.56 3.96 18313984
2.9 19.56 3.95 18313984
3.1 19.56 3.95 18313984
3.25 19.56 3.81 18313984
3.25 19.56 2.84 16216831
3.24 19.56 2.84 16216831
3.24 19.56 3.0 16216831
3.25 19.56 3.2 16216831
3.26 19.56 3.96 16216831
0.76 19.27 3.37 16216575
0.77 19.27 3.56 16216575
0.76 19.27 3.79 18313728
0.92 19.27 3.99 18313728
1.07 19.27 3.99 18313728
0.87 19.27 4.0 18313728
1.12 19.27 4.0 18313728
1.32 19.27 3.99 5066239
1.4 19.27 3.99 5066239
1.72 19.27 3.99 5066239
1.91 19.27 3.99 5066239
2.09 19.27 3.99 5066239
2.32 19.27 3.98 5066239
2.51 19.27 3.98 5066239
2.72 19.27 3.98 5066239
1.49 19.27 4.0 5066239
1.67 19.27 4.0 5066239
2.05 19.27 4.0 5066239
2.18 19.27 4.0 5066239
3.26 19.27 3.96 18313984
2.92 19.27 3.94 18313984
3.11 19.27 3.94 18313984
3.27 19.27 3.85 18313984
3.24 19.27 2.77 16216831
3.24 19.27 2.77 16216831
3.24 19.27 2.82 16216831
3.24 19.27 3.05 16216831
3.25 19.27 3.23 16216831
3.25 19.27 3.96 16216831
0.77 18.99 3.03 16216575
0.77 18.99 3.35 16216575
0.77 18.99 3.57 16216575
0.76 18.99 3.78 18313728
0.91 18.99 3.99 18313728
1.11 18.99 3.99 18313728
1.32 18.99 3.99 5066239
1.52 18.99 3.99 5066239
1.72 18.99 3.99 5066239
1.91 18.99 3.99 5066239
2.1 18.99 3.99 5066239
2.33 18.99 3.99 5066239
2.53 18.99 3.98 5066239
2.74 18.99 3.98 5066239
1.7 18.99 4.0 5066239
1.94 18.99 4.0 5066239
2.13 18.99 4.0 5066239
2.2 18.99 4.0 5066239
3.27 18.99 3.98 18313984
2.94 18.99 3.95 18313984
3.12 18.99 3.95 18313984
3.28 18.99 3.85 18313984
3.26 18.99 3.1 16216831
3.26 18.99 3.1 16216831
3.27 18.99 3.2 16216831
3.27 18.99 3.98 16216831
0.79 18.7 2.97 16216575
0.78 18.7 3.15 16216575
0.78 18.7 3.35 16216575
0.78 18.7 3.59 16216575
0.78 18.7 3.77 18313728
0.95 18.7 3.98 18313728
1.13 18.7 3.99 18313728
0.77 18.7 3.98 18313728
1.35 18.7 3.98 5066239
1.54 18.7 3.98 5066239
1.74 18.7 3.99 5066239
1.96 18.7 3.99 5066239
2.14 18.7 3.99 5066239
2.36 18.7 3.99 5066239
2.55 18.7 3.98 5066239
2.75 18.7 3.97 5066239
3.29 18.7 3.97 18313984
2.95 18.7 3.97 18313984
3.16 18.7 3.97 18313984
3.29 18.7 3.81 18313984
3.28 18.7 3.07 16216831
3.29 18.7 3.07 16216831
3.29 18.7 3.22 16216831
3.29 18.7 3.97 16216831
0.81 18.41 2.77 16216575
0.81 18.41 2.89 16216575
0.81 18.41 3.17 16216575
0.81 18.41 3.36 16216575
0.8 18.41 3.58 16216575
0.8 18.41 3.76 18313728
0.94 18.41 3.98 18313728
1.09 18.41 3.99 18313728
1.02 18.41 3.99 18313728
1.31 18.41 3.99 5066239
1.52 18.41 3.99 5066239
1.72 18.41 3.99 5066239
1.93 18.41 3.99 5066239
2.13 18.41 3.99 5066239
2.32 18.41 3.98 5066239
2.53 18.41 3.98 5066239
2.73 18.41 3.98 5066239
2.05 18.41 4.0 5066239
2.27 18.41 4.0 5066239
3.31 18.41 3.98 18313984
2.94 18.41 3.97 18313984
3.14 18.41 3.97 18313984
3.3 18.41 3.82 18313984
3.3 18.41 2.86 16216831
3.3 18.41 2.86 16216831
3.3 18.41 3.03 16216831
3.31 18.41 3.24 16216831
3.31 18.41 3.98 16216831
0.81 18.11 2.96 16216575
0.81 18.11 3.08 16216575
0.8 18.11 3.38 16216575
0.8 18.11 3.58 16216575
0.8 18.11 3.79 18313728
0.95 18.11 3.98 18313728
1.17 18.11 3.98 18313728
1.34 18.11 3.98 5066239
1.57 18.11 3.98 5066239
1.77 18.11 3.98 5066239
1.98 18.11 3.98 5066239
2.16 18.11 3.98 5066239
2.38 18.11 3.98 5066239
2.58 18.11 3.97 5066239
2.77 18.11 3.97 5066239
3.31 18.11 3.97 18313984
2.98 18.11 3.94 18313984
3.16 18.11 3.94 18313984
3.32 18.11 3.86 18313984
3.3 18.11 3.21 16216831
3.3 18.11 3.21 16216831
3.31 18.11 3.97 16216831
0.81 17.82 2.94 16216575
0.81 17.82 3.16 16216575
0.81 17.82 3.35 16216575
0.82 17.82 3.58 16216575
0.81 17.82 3.76 18313728
0.99 17.82 3.98 18313728
1.18 17.82 3.98 18313728
1.39 17.82 3.98 5066239
1.58 17.82 3.98 5066239
1.78 17.82 3.99 5066239
1.99 17.82 3.99 5066239
2.19 17.82 3.98 5066239
2.39 17.82 3.98 5066239
2.58 17.82 3.98 5066239
2.79 17.82 3.98 5066239
2.05 17.82 3.98 5066239
3.32 17.82 3.97 18313984
2.99 17.82 3.95 18313984
3.18 17.82 3.95 18313984
3.33 17.82 3.84 18313984
3.32 17.82 3.84 16216831
3.32 17.82 3.97 16216831
0.84 17.54 2.73 16216575
0.84 17.54 2.97 16216575
0.83 17.54 3.15 16216575
0.83 17.54 3.35 16216575
0.83 17.54 3.59 16216575
0.83 17.54 3.78 18313728
0.99 17.54 3.98 18313728
1.18 17.54 3.98 18313728
1.38 17.54 3.98 5066239
1.61 17.54 3.98 5066239
1.81 17.54 3.99 5066239
1.99 17.54 3.99 5066239
2.19 17.54 3.98 5066239
2.4 17.54 3.97 5066239
2.61 17.54 3.97 5066239
2.81 17.54 3.97 5066239
2.03 17.54 3.97 5066239
3.34 17.54 3.96 18313984
3.0 17.54 3.96 18313984
3.21 17.54 3.96 18313984
3.34 17.54 3.84 18313984
3.32 17.54 3.01 16216831
3.33 17.54 3.01 16216831
3.33 17.54 3.25 16216831
3.34 17.54 3.96 16216831
0.86 17.24 2.73 16216575
0.86 17.24 2.97 16216575
0.86 17.24 3.03 16216575
0.84 17.24 3.36 16216575
0.84 17.24 3.56 16216575
0.84 17.24 3.77 18313728
0.98 17.24 3.98 18313728
1.17 17.24 3.98 18313728
0.81 17.24 3.98 18313728
1.38 17.24 3.98 5066239
1.58 17.24 3.98 5066239
1.77 17.24 3.98 5066239
1.99 17.24 3.98 5066239
2.19 17.24 3.98 5066239
2.4 17.24 3.97 5066239
2.59 17.24 3.97 5066239
2.8 17.24 3.97 5066239
3.34 17.24 3.97 18313984
3.0 17.24 3.95 18313984
3.2 17.24 3.95 18313984
3.34 17.24 3.81 18313984
3.35 17.24 3.2 16216831
3.34 17.24 3.2 16216831
3.34 17.24 3.97 16216831
0.85 16.94 2.99 16216575
0.84 16.94 3.36 16216575
0.84 16.94 3.59 16216575
0.85 16.94 3.78 18313728
1.01 16.94 3.98 18313728
1.17 16.94 3.99 18313728
1.4 16.94 3.98 5066239
1.61 16.94 3.98 5066239
1.81 16.94 3.98 5066239
1.99 16.94 3.99 5066239
2.22 16.94 3.99 5066239
2.42 16.94 3.98 5066239
2.61 16.94 3.97 5066239
2.82 16.94 3.97 5066239
2.03 16.94 3.96 5066239
3.34 16.94 3.95 18313984
3.01 16.94 3.95 18313984
3.21 16.94 3.95 18313984
3.35 16.94 3.84 18313984
3.34 16.94 3.1 16216831
3.34 16.94 3.1 16216831
3.34 16.94 3.23 16216831
3.34 16.94 3.95 16216831
0.85 16.66 2.98 16216575
0.85 16.66 3.19 16216575
0.85 16.66 3.38 16216575
0.86 16.66 3.59 16216575
0.85 16.66 3.79 18313728
1.01 16.66 3.98 18313728
1.21 16.66 3.99 18313728
0.88 16.66 3.98 18313728
1.43 16.66 3.98 5066239
1.63 16.66 3.98 5066239
1.81 16.66 3.99 5066239
1.99 16.66 3.99 5066239
2.22 16.66 3.99 5066239
2.42 16.66 3.98 5066239
2.63 16.66 3.97 5066239
2.83 16.66 3.97 5066239
1.53 16.66 4.0 5066239
2.03 16.66 4.0 5066239
2.3 16.66 4.0 5066239
3.35 16.66 3.96 18313984
3.03 16.66 3.95 18313984
3.22 16.66 3.95 18313984
3.36 16.66 3.86 18313984
3.34 16.66 3.86 16216831
3.35 16.66 3.96 16216831
0.87 16.37 2.98 16216575
0.87 16.37 3.19 16216575
0.87 16.37 3.38 16216575
0.87 16.37 3.57 16216575
0.86 16.37 3.77 18313728
1.01 16.37 3.99 18313728
1.19 16.37 3.99 18313728
1.13 16.37 3.99 18313728
1.4 16.37 3.99 5066239
1.56 16.37 3.99 5066239
1.82 16.37 3.99 5066239
1.85 16.37 3.99 5066239
2.23 16.37 3.99 5066239
2.43 16.37 3.98 5066239
2.64 16.37 3.98 5066239
2.83 16.37 3.98 5066239
1.63 16.37 4.0 5066239
1.73 16.37 4.0 5066239
2.03 16.37 4.0 5066239
2.19 16.37 4.0 5066239
2.28 16.37 4.0 5066239
3.36 16.37 3.96 18313984
3.04 16.37 3.95 18313984
3.24 16.37 3.95 18313984
3.36 16.37 3.84 18313984
3.35 16.37 2.84 16216831
3.35 16.37 2.84 16216831
3.36 16.37 3.19 16216831
3.35 16.37 3.27 16216831
3.36 16.37 3.96 16216831
0.89 16.09 2.99 16216575
0.88 16.09 3.17 16216575
0.88 16.09 3.39 16216575
0.88 16.09 3.58 16216575
0.87 16.09 3.77 18313728
1.04 16.09 3.98 18313728
1.21 16.09 3.98 18313728
0.92 16.09 3.98 18313728
1.43 16.09 3.98 5066239
1.62 16.09 3.98 5066239
1.84 16.09 3.98 5066239
1.99 16.09 3.98 5066239
2.23 16.09 3.98 5066239
2.44 16.09 3.97 5066239
2.64 16.09 3.96 5066239
2.83 16.09 3.96 5066239
2.03 16.09 3.96 5066239
3.36 16.09 3.95 18313984
3.04 16.09 3.95 18313984
3.23 16.09 3.95 18313984
3.37 16.09 3.85 18313984
3.36 16.09 3.02 16216831
3.35 16.09 3.02 16216831
3.36 16.09 3.25 16216831
3.35 16.09 3.95 16216831
0.88 15.79 2.95 16216575
0.88 15.79 3.18 16216575
0.88 15.79 3.35 16216575
0.88 15.79 3.58 16216575
0.87 15.79 3.78 18313728
1.01 15.79 3.99 18313728
1.24 15.79 3.99 18313728
0.92 15.79 3.99 18313728
1.44 15.79 3.99 5066239
1.56 15.79 3.99 5066239
1.81 15.79 3.99 5066239
1.99 15.79 3.99 5066239
2.24 15.79 3.99 5066239
2.44 15.79 3.97 5066239
2.63 15.79 3.97 5066239
2.83 15.79 3.97 5066239
1.63 15.79 4.0 5066239
1.7 15.79 4.0 5066239
2.03 15.79 4.0 5066239
2.12 15.79 4.0 5066239
2.32 15.79 4.0 5066239
3.36 15.79 3.96 18313984
3.04 15.79 3.95 18313984
3.24 15.79 3.95 18313984
3.37 15.79 3.82 18313984
3.34 15.79 2.59 16216831
3.33 15.79 2.59 16216831
3.35 15.79 2.84 16216831
3.35 15.79 3.14 16216831
3.36 15.79 3.23 16216831
3.36 15.79 3.96 16216831
0.88 15.42 2.97 16216575
0.88 15.42 3.18 16216575
0.87 15.42 3.36 16216575
0.88 15.42 3.59 18313728
0.87 15.42 3.78 18313728
1.03 15.42 3.97 18313728
1.2 15.42 3.98 18313728
1.42 15.42 3.98 5066239
1.64 15.42 3.98 5066239
1.84 15.42 3.98 5066239
2.04 15.42 3.98 5066239
2.24 15.42 3.98 5066239
2.45 15.42 3.98 5066239
2.65 15.42 3.97 5066239
2.84 15.42 3.95 5066239
3.38 15.42 3.95 18313984
3.05 15.42 3.95 18313984
3.24 15.42 3.95 18313984
3.38 15.42 3.83 18313984
3.37 15.42 3.83 16216831
3.37 15.42 3.95 16216831
0.89 15.11 2.98 16216575
0.89 15.11 3.18 16216575
0.89 15.11 3.37 16216575
0.89 15.11 3.55 16216575
0.88 15.11 3.79 18313728
1.04 15.11 3.98 18313728
1.21 15.11 3.98 18313728
1.43 15.11 3.98 5066239
1.61 15.11 3.98 5066239
1.84 15.11 3.98 5066239
2.01 15.11 3.98 5066239
2.24 15.11 3.98 5066239
2.42 15.11 3.97 5066239
2.63 15.11 3.97 5066239
2.83 15.11 3.97 5066239
2.13 15.11 3.97 5066239
3.39 15.11 3.96 18313984
3.04 15.11 3.95 18313984
3.24 15.11 3.95 18313984
3.39 15.11 3.85 18313984
3.38 15.11 3.23 16216831
3.38 15.11 3.23 16216831
3.38 15.11 3.96 16216831
0.89 14.82 2.75 16216575
0.89 14.82 2.99 16216575
0.88 14.82 3.15 16216575
0.88 14.82 3.38 16216575
0.88 14.82 3.57 16216575
0.88 14.82 3.77 18313728
1.03 14.82 3.98 18313728
1.25 14.82 3.98 18313728
1.42 14.82 3.98 5066239
1.64 14.82 3.98 5066239
1.83 14.82 3.98 5066239
2.04 14.82 3.98 5066239
2.25 14.82 3.98 5066239
2.44 14.82 3.97 5066239
2.64 14.82 3.96 5066239
2.85 14.82 3.96 5066239
3.38 14.82 3.95 18313984
3.05 14.82 3.95 18313984
3.25 14.82 3.95 18313984
3.38 14.82 3.84 18313984
3.37 14.82 3.12 16216831
3.38 14.82 3.12 16216831
3.38 14.82 3.21 16216831
3.38 14.82 3.95 16216831
0.89 14.51 2.76 16216575
0.89 14.51 2.99 16216575
0.89 14.51 3.19 16216575
0.89 14.51 3.37 16216575
0.89 14.51 3.59 18313728
0.89 14.51 3.78 18313728
1.03 14.51 3.98 18313728
1.21 14.51 3.98 18313728
1.41 14.51 3.98 5066239
1.64 14.51 3.98 5066239
1.83 14.51 3.98 5066239
2.04 14.51 3.98 5066239
2.23 14.51 3.98 5066239
2.44 14.51 3.97 5066239
2.63 14.51 3.97 5066239
2.83 14.51 3.96 5066239
3.39 14.51 3.96 18313984
3.04 14.51 3.94 18313984
3.24 14.51 3.94 18313984
3.4 14.51 3.86 18313984
3.38 14.51 3.22 16216831
3.38 14.51 3.22 16216831
3.38 14.51 3.96 16216831
0.91 14.22 2.76 16216575
0.9 14.22 2.94 16216575
0.91 14.22 3.19 16216575
0.9 14.22 3.36 16216575
0.9 14.22 3.59 16216575
0.9 14.22 3.78 18313728
1.08 14.22 3.98 18313728
1.25 14.22 3.98 18313728
1.48 14.22 3.99 5066239
1.66 14.22 3.99 5066239
1.87 14.22 3.99 5066239
2.07 14.22 3.99 5066239
2.27 14.22 3.99 5066239
2.48 14.22 3.98 5066239
2.67 14.22 3.98 5066239
2.87 14.22 3.97 5066239
2.13 14.22 3.96 5066239
3.4 14.22 3.95 18313984
3.07 14.22 3.95 18313984
3.28 14.22 3.95 18313984
3.41 14.22 3.83 18313984
3.4 14.22 3.26 16216831
3.39 14.22 3.26 16216831
3.4 14.22 3.95 16216831
0.92 13.92 2.58 16216575
0.92 13.92 2.71 16216575
0.92 13.92 2.96 16216575
0.92 13.92 3.16 16216575
0.91 13.92 3.39 16216575
0.91 13.92 3.57 16216575
0.9 13.92 3.78 18313728
1.06 13.92 3.97 18313728
1.24 13.92 3.97 18313728
1.44 13.92 3.97 5066239
1.67 13.92 3.98 5066239
1.86 13.92 3.98 5066239
2.07 13.92 3.98 5066239
2.28 13.92 3.98 5066239
2.48 13.92 3.97 5066239
2.67 13.92 3.97 5066239
2.88 13.92 3.97 5066239
2.03 13.92 3.97 5066239
3.41 13.92 3.96 18313984
3.08 13.92 3.96 18313984
3.28 13.92 3.96 18313984
3.41 13.92 3.84 18313984
3.4 13.92 3.24 16216831
3.4 13.92 3.24 16216831
3.4 13.92 3.96 16216831
0.9 13.63 2.99 16216575
0.9 13.63 3.16 16216575
0.9 13.63 3.38 16216575
0.9 13.63 3.57 16216575
0.9 13.63 3.79 18313728
1.04 13.63 3.98 18313728
1.26 13.63 3.98 18313728
1.43 13.63 3.98 5066239
1.66 13.63 3.99 5066239
1.87 13.63 3.99 5066239
2.05 13.63 3.99 5066239
2.26 13.63 3.98 5066239
2.47 13.63 3.98 5066239
2.67 13.63 3.98 5066239
2.86 13.63 3.98 5066239
2.03 13.63 4.0 5066239
2.23 13.63 4.0 5066239
3.4 13.63 3.96 18313984
3.07 13.63 3.96 18313984
3.27 13.63 3.96 18313984
3.4 13.63 3.84 18313984
3.39 13.63 2.84 16216831
3.38 13.63 2.84 16216831
3.4 13.63 3.12 16216831
3.39 13.63 3.21 16216831
3.4 13.63 3.96 16216831
0.9 13.36 2.59 16216575
0.9 13.36 2.96 16216575
0.89 13.36 3.17 16216575
0.89 13.36 3.36 16216575
0.9 13.36 3.57 16216575
0.9 13.36 3.79 18313728
1.02 13.36 3.98 18313728
1.25 13.36 3.98 18313728
1.42 13.36 3.98 5066239
1.64 13.36 3.98 5066239
1.83 13.36 3.98 5066239
2.04 13.36 3.98 5066239
2.25 13.36 3.98 5066239
2.45 13.36 3.97 5066239
2.64 13.36 3.96 5066239
2.84 13.36 3.95 5066239
3.39 13.36 3.95 18313984
3.05 13.36 3.94 18313984
3.25 13.36 3.94 18313984
3.4 13.36 3.85 18313984
3.38 13.36 2.81 16216831
3.37 13.36 2.81 16216831
3.38 13.36 3.23 16216831
3.38 13.36 3.95 16216831
0.93 13.06 2.49 16216575
0.93 13.06 2.98 16216575
0.92 13.06 3.19 16216575
0.92 13.06 3.38 16216575
0.92 13.06 3.56 16216575
0.91 13.06 3.79 18313728
1.04 13.06 3.98 18313728
1.26 13.06 3.98 18313728
0.88 13.06 3.98 18313728
1.43 13.06 3.99 5066239
1.66 13.06 3.99 5066239
1.87 13.06 3.99 5066239
2.0 13.06 3.99 5066239
2.23 13.06 3.99 5066239
2.47 13.06 3.98 5066239
2.67 13.06 3.98 5066239
2.87 13.06 3.99 5066239
2.05 13.06 4.0 5066239
2.27 13.06 4.0 5066239
2.3 13.06 4.0 5066239
3.41 13.06 3.96 18313984
3.06 13.06 3.95 18313984
3.26 13.06 3.95 18313984
3.41 13.06 3.85 18313984
3.41 13.06 3.22 16216831
3.41 13.06 3.22 16216831
3.42 13.06 3.96 16216831
0.94 12.77 2.96 16216575
0.94 12.77 3.16 16216575
0.94 12.77 3.36 16216575
0.93 12.77 3.59 16216575
0.92 12.77 3.77 18313728
1.09 12.77 3.98 18313728
1.29 12.77 3.98 18313728
1.47 12.77 3.98 5066239
1.68 12.77 3.99 5066239
1.87 12.77 3.99 5066239
2.09 12.77 3.99 5066239
2.29 12.77 3.99 5066239
2.48 12.77 3.98 5066239
2.68 12.77 3.97 5066239
2.88 12.77 3.97 5066239
2.2 12.77 3.97 5066239
3.42 12.77 3.96 18313984
3.09 12.77 3.94 18313984
3.27 12.77 3.94 18313984
3.42 12.77 3.88 18313984
3.42 12.77 3.11 16216831
3.42 12.77 3.11 16216831
3.42 12.77 3.21 16216831
3.42 12.77 3.96 16216831
0.93 12.49 2.56 16216575
0.93 12.49 2.75 16216575
0.93 12.49 2.98 16216575
0.92 12.49 3.18 16216575
0.92 12.49 3.36 16216575
0.92 12.49 3.58 16216575
0.92 12.49 3.77 18313728
1.09 12.49 3.98 18313728
1.26 12.49 3.98 18313728
0.97 12.49 3.99 18313728
1.47 12.49 3.99 5066239
1.68 12.49 3.99 5066239
1.87 12.49 3.99 5066239
2.08 12.49 3.99 5066239
2.29 12.49 3.99 5066239
2.49 12.49 3.98 5066239
2.69 12.49 3.98 5066239
2.89 12.49 3.98 5066239
2.05 12.49 4.0 5066239
2.27 12.49 4.0 5066239
3.41 12.49 3.96 18313984
3.09 12.49 3.96 18313984
3.29 12.49 3.96 18313984
3.4 12.49 3.8 18313984
3.41 12.49 3.8 16216831
3.41 12.49 3.96 16216831
0.91 12.21 2.74 16216575
0.91 12.21 2.98 16216575
0.91 12.21 3.19 16216575
0.91 12.21 3.39 16216575
0.91 12.21 3.57 16216575
0.91 12.21 3.79 18313728
1.06 12.21 3.99 18313728
1.27 12.21 3.99 18313728
1.02 12.21 3.99 18313728
1.47 12.21 3.99 5066239
1.66 12.21 3.99 5066239
1.85 12.21 3.99 5066239
1.91 12.21 3.99 5066239
2.27 12.21 3.98 5066239
2.47 12.21 3.98 5066239
2.67 12.21 3.98 5066239
2.88 12.21 3.98 5066239
2.05 12.21 4.0 5066239
2.28 12.21 4.0 5066239
2.3 12.21 4.0 5066239
3.4 12.21 3.97 18313984
3.07 12.21 3.96 18313984
3.28 12.21 3.96 18313984
3.39 12.21 3.81 18313984
3.39 12.21 3.26 16216831
3.39 12.21 3.26 16216831
3.39 12.21 3.97 16216831
0.91 11.91 2.97 16216575
0.91 11.91 3.19 16216575
0.9 11.91 3.37 16216575
0.9 11.91 3.56 16216575
0.9 11.91 3.79 18313728
1.07 11.91 3.99 18313728
1.25 11.91 3.99 18313728
1.07 11.91 4.0 18313728
1.16 11.91 4.0 18313728
1.37 11.91 3.99 5066239
1.49 11.91 3.99 5066239
1.86 11.91 3.99 5066239
1.88 11.91 3.99 5066239
2.25 11.91 3.99 5066239
2.45 11.91 3.98 5066239
2.65 11.91 3.98 5066239
2.87 11.91 3.98 5066239
1.45 11.91 4.0 5066239
1.67 11.91 4.0 5066239
1.7 11.91 4.0 5066239
2.06 11.91 4.0 5066239
2.25 11.91 4.0 5066239
2.37 11.91 4.0 5066239
3.39 11.91 3.97 18313984
3.07 11.91 3.97 18313984
3.27 11.91 3.97 18313984
3.38 11.91 3.81 18313984
3.39 11.91 3.24 16216831
3.39 11.91 3.24 16216831
3.39 11.91 3.97 16216831
0.91 11.62 2.97 16216575
0.91 11.62 3.17 16216575
0.91 11.62 3.39 16216575
0.91 11.62 3.57 16216575
0.91 11.62 3.79 18313728
1.09 11.62 3.99 18313728
1.29 11.62 3.99 18313728
1.08 11.62 4.0 18313728
1.16 11.62 4.0 18313728
1.49 11.62 3.99 5066239
1.69 11.62 3.99 5066239
1.89 11.62 3.99 5066239
2.09 11.62 3.99 5066239
2.28 11.62 3.99 5066239
2.46 11.62 3.99 5066239
2.62 11.62 3.99 5066239
2.89 11.62 3.99 5066239
1.49 11.62 4.0 5066239
1.68 11.62 4.0 5066239
1.89 11.62 4.0 5066239
2.09 11.62 4.0 5066239
2.28 11.62 4.0 5066239
2.43 11.62 4.0 5066239
2.69 11.62 4.0 5066239
2.71 11.62 4.0 5066239
2.98 11.62 4.0 5066239
3.41 11.62 3.97 18313984
3.09 11.62 3.97 18313984
3.29 11.62 3.97 18313984
3.41 11.62 3.83 18313984
3.4 11.62 3.27 16216831
3.4 11.62 3.27 16216831
3.4 11.62 3.97 16216831
0.94 11.33 2.79 16216575
0.93 11.33 2.97 16216575
0.93 11.33 3.16 16216575
0.93 11.33 3.38 16216575
0.93 11.33 3.57 16216575
0.92 11.33 3.77 18313728
1.06 11.33 3.99 18313728
1.27 11.33 3.99 18313728
1.02 11.33 3.99 18313728
1.47 11.33 3.99 5066239
1.66 11.33 3.99 5066239
1.88 11.33 3.99 5066239
2.07 11.33 3.99 5066239
2.28 11.33 3.98 5066239
2.47 11.33 3.98 5066239
2.67 11.33 3.98 5066239
2.87 11.33 3.98 5066239
1.88 11.33 4.0 5066239
2.05 11.33 4.0 5066239
2.2 11.33 4.0 5066239
2.36 11.33 4.0 5066239
3.42 11.33 3.97 18313984
3.08 11.33 3.96 18313984
3.27 11.33 3.96 18313984
3.4 11.33 3.8 18313984
3.41 11.33 3.23 16216831
3.41 11.33 3.23 16216831
3.41 11.33 3.97 16216831
0.93 11.04 2.97 16216575
0.93 11.04 3.17 16216575
0.93 11.04 3.39 16216575
0.93 11.04 3.57 16216575
0.92 11.04 3.77 18313728
1.07 11.04 3.99 18313728
1.24 11.04 3.99 18313728
1.07 11.04 3.99 18313728
1.41 11.04 3.99 5066239
1.56 11.04 3.99 5066239
1.87 11.04 3.99 5066239
2.06 11.04 3.99 5066239
2.26 11.04 3.99 5066239
2.48 11.04 3.99 5066239
2.68 11.04 3.99 5066239
2.87 11.04 3.99 5066239
1.45 11.04 4.0 5066239
1.67 11.04 4.0 5066239
1.87 11.04 4.0 5066239
2.06 11.04 4.0 5066239
2.28 11.04 4.0 5066239
2.43 11.04 4.0 5066239
2.66 11.04 4.0 5066239
3.42 11.04 3.97 18313984
3.08 11.04 3.96 18313984
3.28 11.04 3.96 18313984
3.41 11.04 3.81 18313984
3.41 11.04 3.81 16216831
3.41 11.04 3.97 16216831
0.92 10.75 2.51 16216575
0.92 10.75 2.71 16216575
0.92 10.75 2.94 16216575
0.92 10.75 3.16 16216575
0.92 10.75 3.37 16216575
0.92 10.75 3.59 16216575
0.92 10.75 3.78 18313728
1.04 10.75 3.99 18313728
1.29 10.75 3.99 18313728
1.08 10.75 4.0 18313728
1.16 10.75 4.0 18313728
1.41 10.75 3.99 5066239
1.59 10.75 3.99 5066239
1.88 10.75 3.99 5066239
2.08 10.75 3.99 5066239
2.25 10.75 3.99 5066239
2.48 10.75 3.99 5066239
2.69 10.75 3.99 5066239
2.89 10.75 3.99 5066239
1.49 10.75 4.0 5066239
1.67 10.75 4.0 5066239
1.86 10.75 4.0 5066239
2.08 10.75 4.0 5066239
2.28 10.75 4.0 5066239
2.32 10.75 4.0 5066239
3.41 10.75 3.97 18313984
3.08 10.75 3.97 18313984
3.29 10.75 3.97 18313984
3.41 10.75 3.84 18313984
3.4 10.75 3.23 16216831
3.4 10.75 3.23 16216831
3.4 10.75 3.97 16216831
0.91 10.47 2.97 16216575
0.91 10.47 3.18 16216575
0.91 10.47 3.36 16216575
0.91 10.47 3.58 16216575
0.91 10.47 3.77 18313728
1.07 10.47 3.99 18313728
1.28 10.47 3.99 18313728
1.08 10.47 4.0 18313728
1.16 10.47 4.0 18313728
1.36 10.47 3.99 5066239
1.56 10.47 3.99 5066239
1.79 10.47 3.99 5066239
2.08 10.47 3.99 5066239
2.28 10.47 3.99 5066239
2.48 10.47 3.99 5066239
2.68 10.47 3.99 5066239
2.87 10.47 3.99 5066239
1.46 10.47 4.0 5066239
1.67 10.47 4.0 5066239
1.86 10.47 4.0 5066239
2.07 10.47 4.0 5066239
2.28 10.47 4.0 5066239
2.47 10.47 4.0 5066239
2.66 10.47 4.0 5066239
3.4 10.47 3.97 18313984
3.08 10.47 3.97 18313984
3.27 10.47 3.97 18313984
3.41 10.47 3.89 18313984
3.39 10.47 3.24 16216831
3.39 10.47 3.24 16216831
3.39 10.47 3.97 16216831
0.92 10.18 2.76 16216575
0.92 10.18 2.99 16216575
0.92 10.18 3.15 16216575
0.92 10.18 3.38 16216575
0.91 10.18 3.58 16216575
0.9 10.18 3.78 18313728
1.06 10.18 3.99 18313728
1.24 10.18 3.99 18313728
0.93 10.18 4.0 18313728
1.11 10.18 4.0 18313728
1.36 10.18 3.99 5066239
1.49 10.18 3.99 5066239
1.85 10.18 3.99 5066239
1.91 10.18 3.99 5066239
2.26 10.18 3.99 5066239
2.46 10.18 3.99 5066239
2.65 10.18 3.99 5066239
2.85 10.18 3.99 5066239
1.46 10.18 4.0 5066239
1.63 10.18 4.0 5066239
1.81 10.18 4.0 5066239
2.06 10.18 4.0 5066239
2.27 10.18 4.0 5066239
2.41 10.18 4.0 5066239
2.67 10.18 4.0 5066239
3.4 10.18 3.98 18313984
3.07 10.18 3.97 18313984
3.27 10.18 3.97 18313984
3.39 10.18 3.81 18313984
3.39 10.18 3.09 16216831
3.39 10.18 3.09 16216831
3.39 10.18 3.21 16216831
3.4 10.18 3.98 16216831
0.93 9.91 2.5 16216575
0.92 9.91 2.96 16216575
0.92 9.91 3.16 16216575
0.91 9.91 3.39 16216575
0.91 9.91 3.58 16216575
0.9 9.91 3.78 18313728
1.07 9.91 3.99 18313728
1.25 9.91 3.99 18313728
1.08 9.91 4.0 18313728
1.16 9.91 4.0 18313728
1.36 9.91 3.99 5066239
1.59 9.91 3.99 5066239
1.82 9.91 3.99 5066239
2.48 9.91 3.99 5066239
2.68 9.91 3.99 5066239
2.88 9.91 3.99 5066239
1.46 9.91 4.0 5066239
1.67 9.91 4.0 5066239
1.86 9.91 4.0 5066239
2.08 9.91 4.0 5066239
2.28 9.91 4.0 5066239
2.32 9.91 4.0 5066239
2.58 9.91 4.0 5066239
3.4 9.91 3.97 18313984
3.08 9.91 3.97 18313984
3.28 9.91 3.97 18313984
3.39 9.91 3.83 18313984
3.39 9.91 3.2 16216831
3.39 9.91 3.2 16216831
3.39 9.91 3.97 16216831
0.92 9.63 2.58 16216575
0.92 9.63 2.78 16216575
0.92 9.63 2.99 16216575
0.92 9.63 3.19 16216575
0.91 9.63 3.38 16216575
0.92 9.63 3.59 16216575
0.91 9.63 3.79 18313728
1.07 9.63 3.99 18313728
1.27 9.63 3.99 18313728
1.04 9.63 4.0 18313728
1.26 9.63 4.0 18313728
1.47 9.63 3.99 5066239
1.66 9.63 3.99 5066239
1.88 9.63 3.99 5066239
2.08 9.63 3.99 5066239
2.25 9.63 3.99 5066239
2.46 9.63 3.99 5066239
2.68 9.63 3.99 5066239
2.69 9.63 3.99 5066239
1.48 9.63 4.01 5066239
1.66 9.63 4.01 5066239
1.85 9.63 4.01 5066239
2.08 9.63 4.02 5066239
2.28 9.63 4.02 5066239
2.47 9.63 4.0 5066239
2.67 9.63 4.0 5066239
2.88 9.63 4.0 5066239
3.07 9.63 3.99 18313984
3.28 9.63 3.98 18313984
3.4 9.63 3.98 18313984
3.03 9.63 4.0 18313984
3.12 9.63 4.0 18313984
3.39 9.63 3.54 16216831
3.41 9.63 3.54 16216831
3.4 9.63 3.99 16216831
0.93 9.34 2.75 16216575
0.93 9.34 2.98 16216575
0.92 9.34 3.18 16216575
0.92 9.34 3.36 16216575
0.92 9.34 3.58 16216575
0.91 9.34 3.79 18313728
1.07 9.34 3.99 18313728
1.27 9.34 3.99 18313728
1.03 9.34 4.0 18313728
1.25 9.34 4.0 18313728
1.32 9.34 3.99 5066239
1.49 9.34 3.99 5066239
1.88 9.34 3.99 5066239
2.0 9.34 3.99 5066239
2.48 9.34 3.99 5066239
2.68 9.34 3.99 5066239
2.88 9.34 3.99 5066239
1.45 9.34 4.0 5066239
1.68 9.34 4.0 5066239
1.83 9.34 4.0 5066239
2.06 9.34 4.0 5066239
2.27 9.34 4.0 5066239
2.45 9.34 4.0 5066239
2.64 9.34 4.0 5066239
3.41 9.34 3.97 18313984
3.08 9.34 3.97 18313984
3.28 9.34 3.97 18313984
3.4 9.34 3.82 18313984
3.4 9.34 3.82 16216831
3.4 9.34 3.97 16216831
0.93 9.05 2.75 16216575
0.92 9.05 2.95 16216575
0.92 9.05 3.15 16216575
0.91 9.05 3.38 16216575
0.91 9.05 3.57 16216575
0.91 9.05 3.77 18313728
1.02 9.05 3.99 18313728
1.24 9.05 3.99 18313728
1.07 9.05 4.0 18313728
1.16 9.05 4.0 18313728
1.4 9.05 3.99 5066239
1.63 9.05 3.99 5066239
1.82 9.05 3.99 5066239
2.06 9.05 3.99 5066239
2.25 9.05 3.99 5066239
2.45 9.05 3.99 5066239
2.65 9.05 3.99 5066239
2.87 9.05 3.99 5066239
1.45 9.05 4.0 5066239
1.67 9.05 4.0 5066239
1.86 9.05 4.0 5066239
2.06 9.05 4.0 5066239
2.27 9.05 4.0 5066239
2.67 9.05 4.0 5066239
3.39 9.05 3.98 18313984
3.07 9.05 3.97 18313984
3.27 9.05 3.97 18313984
3.39 9.05 3.82 18313984
3.39 9.05 3.2 16216831
3.39 9.05 3.2 16216831
3.39 9.05 3.98 16216831
0.91 8.76 2.99 16216575
0.91 8.76 3.19 16216575
0.9 8.76 3.36 16216575
0.9 8.76 3.59 16216575
0.9 8.76 3.79 18313728
1.06 8.76 3.98 18313728
1.27 8.76 3.99 18313728
0.97 8.76 4.0 18313728
1.25 8.76 4.0 18313728
1.4 8.76 3.99 5066239
1.63 8.76 3.99 5066239
1.85 8.76 3.99 5066239
2.06 8.76 3.99 5066239
2.27 8.76 3.99 5066239
2.46 8.76 3.98 5066239
2.67 8.76 3.98 5066239
2.86 8.76 3.98 5066239
1.46 8.76 4.0 5066239
1.67 8.76 4.0 5066239
1.8 8.76 4.0 5066239
2.05 8.76 4.0 5066239
2.25 8.76 4.0 5066239
3.39 8.76 3.97 18313984
3.07 8.76 3.97 18313984
3.26 8.76 3.97 18313984
3.38 8.76 3.97 18313984
3.37 8.76 3.8 18313984
3.37 8.76 3.8 16216831
3.38 8.76 3.97 16216831
0.92 8.47 2.51 16216575
0.92 8.47 2.78 16216575
0.92 8.47 2.96 16216575
0.91 8.47 3.17 16216575
0.91 8.47 3.39 16216575
0.91 8.47 3.57 16216575
0.91 8.47 3.77 18313728
1.05 8.47 3.98 18313728
1.24 8.47 3.99 18313728
1.0 8.47 4.0 18313728
1.2 8.47 4.0 18313728
1.4 8.47 3.99 5066239
1.65 8.47 3.99 5066239
1.85 8.47 3.99 5066239
1.94 8.47 3.99 5066239
2.25 8.47 3.99 5066239
2.45 8.47 3.98 5066239
2.64 8.47 3.98 5066239
2.85 8.47 3.98 5066239
1.63 8.47 4.0 5066239
1.7 8.47 4.0 5066239
2.03 8.47 4.0 5066239
2.25 8.47 4.0 5066239
2.36 8.47 4.0 5066239
3.4 8.47 3.98 18313984
3.05 8.47 3.98 18313984
3.24 8.47 3.98 18313984
3.41 8.47 3.89 18313984
3.38 8.47 3.23 16216831
3.38 8.47 3.23 16216831
3.39 8.47 3.98 16216831
0.93 8.18 2.54 16216575
0.93 8.18 2.75 16216575
0.93 8.18 2.98 16216575
0.92 8.18 3.18 16216575
0.92 8.18 3.36 16216575
0.92 8.18 3.58 16216575
0.91 8.18 3.77 18313728
1.08 8.18 3.98 18313728
1.24 8.18 3.99 18313728
1.08 8.18 4.0 18313728
1.2 8.18 4.0 18313728
1.37 8.18 3.99 5066239
1.66 8.18 3.99 5066239
1.85 8.18 3.99 5066239
2.05 8.18 3.99 5066239
2.17 8.18 3.99 5066239
2.48 8.18 3.99 5066239
2.68 8.18 3.99 5066239
2.88 8.18 3.99 5066239
1.45 8.18 4.0 5066239
1.63 8.18 4.0 5066239
1.8 8.18 4.0 5066239
2.03 8.18 4.0 5066239
2.28 8.18 4.0 5066239
2.38 8.18 4.0 5066239
3.4 8.18 3.98 18313984
3.07 8.18 3.97 18313984
3.28 8.18 3.97 18313984
3.4 8.18 3.97 18313984
3.18 8.18 3.83 18313984
3.39 8.18 3.83 16216831
3.39 8.18 3.98 16216831
0.92 7.9 2.57 16216575
0.92 7.9 2.99 16216575
0.92 7.9 3.15 16216575
0.91 7.9 3.39 16216575
0.91 7.9 3.57 16216575
0.91 7.9 3.67 18313728
1.06 7.9 3.98 18313728
1.24 7.9 3.99 18313728
1.03 7.9 4.0 18313728
1.2 7.9 4.0 18313728
1.37 7.9 3.99 5066239
1.59 7.9 3.99 5066239
1.85 7.9 3.99 5066239
2.05 7.9 3.99 5066239
2.25 7.9 3.99 5066239
2.45 7.9 3.99 5066239
2.65 7.9 3.99 5066239
2.84 7.9 3.99 5066239
1.45 7.9 4.0 5066239
1.63 7.9 4.0 5066239
1.84 7.9 4.0 5066239
2.04 7.9 4.0 5066239
2.23 7.9 4.0 5066239
2.28 7.9 4.0 5066239
2.94 7.9 4.0 5066239
3.41 7.9 3.97 18313984
3.06 7.9 3.96 18313984
3.26 7.9 3.96 18313984
3.42 7.9 3.83 18313984
3.38 7.9 3.83 16216831
3.39 7.9 3.97 16216831
1.17 7.61 0.78 16216575
0.93 7.61 0.84 16216575
1.11 7.61 0.99 16216575
1.08 7.61 1.0 16216575
0.93 7.61 2.5 16216575
0.93 7.61 2.7 16216575
0.93 7.61 2.99 16216575
0.92 7.61 3.19 16216575
0.92 7.61 3.37 16216575
0.92 7.61 3.54 16216575
0.9 7.61 3.79 18313728
0.95 7.61 3.98 18313728
1.14 7.61 3.99 18313728
1.08 7.61 3.99 18313728
1.34 7.61 3.99 5066239
1.55 7.61 3.99 5066239
1.75 7.61 3.99 5066239
1.93 7.61 3.99 5066239
2.15 7.61 3.99 5066239
2.35 7.61 3.98 5066239
2.55 7.61 3.98 5066239
2.73 7.61 3.98 5066239
2.93 7.61 3.98 5066239
3.11 7.61 3.98 18313984
3.34 7.61 3.98 18313984
3.4 7.61 3.98 18313984
3.12 7.61 0.89 16216831
3.29 7.61 0.85 16216831
1.33 7.61 0.85 5066239
1.55 7.61 0.85 5066239
1.6 7.61 0.86 5066239
1.95 7.61 0.86 5066239
2.11 7.61 3.98 5066239
1.51 7.32 0.76 16216575
1.69 7.32 0.9 16216575
1.72 7.32 0.98 16216575
1.82 7.32 1.15 16216575
2.37 7.32 3.77 5066239
2.28 7.32 3.97 5066239
2.47 7.32 3.99 5066239
2.67 7.32 3.99 5066239
2.9 7.32 3.99 5066239
3.08 7.32 3.99 5066239
2.99 7.32 3.99 5066239
3.27 7.32 3.99 18313984
3.44 7.32 3.99 18313984
1.86 7.32 1.53 5066239
1.9 7.32 1.53 5066239
1.92 7.32 1.56 5066239
1.95 7.32 1.75 5066239
2.0 7.32 1.99 5066239
2.04 7.32 2.18 5066239
2.09 7.32 2.38 5066239
2.09 7.32 2.45 5066239
2.12 7.32 2.58 5066239
2.16 7.32 2.79 5066239
2.2 7.32 2.98 5066239
2.26 7.32 3.17 5066239
2.29 7.32 3.37 5066239
2.3 7.32 3.42 5066239
2.36 7.32 3.99 5066239
3.5 7.06 0.91 18313984
