# File_name:transit_20220717-221647_l1_c501_id38.pcd
# Mode:normal
# Main_id:38
# Lane1 trs_id:37 lane_min_x:500 lane_max_x:4000
# Time_begin:2022-07-17T22:16:47 Occupancy:19329ms
# Height:3900mm Width:2750mm Length:22350mm
# Speed:0km/h Direction:A
# Axles:0
# Class:Articulated truck Class_id:7 Class_cmk:501
# Offset X:2302mm Y:37771mm Z:2351mm
VERSION .7
FIELDS x y z rgb
SIZE 4 4 4 4
TYPE F F F F
COUNT 1 1 1 1
WIDTH 1955
HEIGHT 1
VIEWPOINT 0 0 1 0 0 0 0
POINTS 1955
DATA ascii
2.83 49.27 2.68 18313984
0.97 48.9 1.56 16216575
1.0 48.9 1.73 16216575
1.1 48.9 1.76 16216575
1.02 48.9 1.87 16216575
1.04 48.9 1.87 16216575
1.12 48.9 2.76 16216575
1.22 48.9 2.85 16216575
1.18 48.9 3.46 18313728
1.42 48.9 3.52 5066239
1.59 48.9 3.54 5066239
1.82 48.9 3.57 5066239
2.02 48.9 3.57 5066239
2.21 48.9 3.58 5066239
2.42 48.9 3.58 5066239
2.62 48.9 3.57 5066239
3.02 48.9 3.39 18313984
2.8 48.9 3.54 18313984
2.97 48.9 3.4 18313984
3.19 48.9 1.32 16216831
3.17 48.9 1.46 16216831
3.2 48.9 2.02 16216831
3.16 48.9 2.25 16216831
3.16 48.9 2.43 16216831
3.15 48.9 2.62 16216831
3.14 48.9 2.85 16216831
3.15 48.9 3.0 16216831
3.12 48.9 3.2 16216831
1.42 48.9 2.91 5066239
1.6 48.9 2.9 5066239
1.81 48.9 2.87 5066239
0.68 48.46 2.59 16216575
0.65 48.46 2.63 16216575
0.72 48.46 2.75 16216575
0.78 48.46 2.89 16216575
0.78 48.46 3.19 16216575
0.81 48.46 3.37 16216575
0.89 48.46 3.58 18313728
0.9 48.46 3.59 18313728
1.07 48.46 3.7 5066239
1.27 48.46 3.74 5066239
1.48 48.46 3.68 5066239
1.69 48.46 3.7 5066239
1.88 48.46 3.71 5066239
2.07 48.46 3.7 5066239
2.28 48.46 3.71 5066239
2.49 48.46 3.7 5066239
2.69 48.46 3.69 5066239
3.16 48.46 3.42 18313984
2.89 48.46 3.71 18313984
3.09 48.46 3.6 18313984
3.24 48.46 1.33 16216831
3.22 48.46 1.43 16216831
3.22 48.46 1.75 16216831
3.22 48.46 1.83 16216831
3.22 48.46 2.07 16216831
3.28 48.46 2.72 16216831
3.31 48.46 2.71 16216831
3.23 48.46 3.12 16216831
3.21 48.46 3.21 16216831
0.8 47.99 1.96 16216575
0.94 47.99 2.07 16216575
0.97 47.99 2.04 16216575
0.95 47.99 2.2 16216575
0.76 47.99 3.18 16216575
0.8 47.99 3.37 16216575
0.85 47.99 3.59 18313728
0.94 47.99 3.7 18313728
1.12 47.99 3.73 18313728
1.33 47.99 3.7 5066239
1.52 47.99 3.71 5066239
1.71 47.99 3.72 5066239
1.93 47.99 3.72 5066239
2.13 47.99 3.73 5066239
2.34 47.99 3.73 5066239
2.53 47.99 3.72 5066239
2.73 47.99 3.75 5066239
3.21 47.99 3.4 18313984
2.93 47.99 3.76 18313984
3.14 47.99 3.64 18313984
3.16 47.99 3.6 18313984
3.26 47.99 0.44 16216831
3.28 47.99 1.24 16216831
3.25 47.99 1.48 16216831
3.26 47.99 1.79 16216831
3.26 47.99 1.88 16216831
3.25 47.99 2.01 16216831
3.24 47.99 2.22 16216831
3.23 47.99 2.45 16216831
3.22 47.99 2.61 16216831
3.21 47.99 2.84 16216831
3.26 47.99 3.12 16216831
3.26 47.99 3.2 16216831
0.82 47.61 1.99 16216575
0.83 47.61 2.5 16216575
0.83 47.61 2.63 16216575
0.78 47.61 3.19 16216575
0.81 47.61 3.39 16216575
0.86 47.61 3.59 18313728
0.96 47.61 3.74 18313728
1.15 47.61 3.75 18313728
1.35 47.61 3.74 5066239
1.53 47.61 3.71 5066239
1.74 47.61 3.74 5066239
1.96 47.61 3.75 5066239
2.16 47.61 3.75 5066239
2.34 47.61 3.74 5066239
2.55 47.61 3.72 5066239
2.76 47.61 3.76 5066239
2.96 47.61 3.78 18313984
3.16 47.61 3.69 18313984
3.21 47.61 3.6 18313984
3.01 47.61 3.8 18313984
3.29 47.61 0.39 16216831
3.31 47.61 1.28 16216831
3.28 47.61 1.5 16216831
3.29 47.61 1.81 16216831
3.27 47.61 2.1 16216831
3.26 47.61 2.2 16216831
3.25 47.61 2.4 16216831
3.24 47.61 2.62 16216831
3.23 47.61 2.8 16216831
3.29 47.61 3.14 16216831
3.28 47.61 3.21 16216831
3.25 47.61 3.41 16216831
0.81 47.17 1.29 16216575
0.82 47.17 1.77 16216575
0.83 47.17 1.92 16216575
0.83 47.17 2.14 16216575
0.84 47.17 2.27 16216575
0.85 47.17 2.58 16216575
0.86 47.17 2.75 16216575
0.8 47.17 3.18 16216575
0.82 47.17 3.39 16216575
0.87 47.17 3.59 18313728
0.99 47.17 3.77 18313728
1.16 47.17 3.78 18313728
1.08 47.17 3.8 18313728
1.39 47.17 3.74 5066239
1.58 47.17 3.74 5066239
1.78 47.17 3.74 5066239
1.99 47.17 3.75 5066239
2.17 47.17 3.74 5066239
2.37 47.17 3.75 5066239
2.58 47.17 3.75 5066239
2.79 47.17 3.75 5066239
2.99 47.17 3.78 18313984
3.19 47.17 3.7 18313984
3.24 47.17 3.6 18313984
2.97 47.17 3.81 18313984
3.04 47.17 3.81 18313984
3.33 47.17 1.35 16216831
3.31 47.17 1.49 16216831
3.31 47.17 1.82 16216831
3.29 47.17 2.02 16216831
3.28 47.17 2.22 16216831
3.27 47.17 2.41 16216831
3.26 47.17 2.63 16216831
3.25 47.17 2.81 16216831
3.31 47.17 3.14 16216831
3.3 47.17 3.21 16216831
3.28 47.17 3.41 16216831
0.85 46.73 1.22 16216575
1.03 46.73 1.95 16216575
1.22 46.73 1.91 16216575
0.88 46.73 2.38 16216575
0.89 46.73 2.56 16216575
0.91 46.73 2.77 16216575
0.97 46.73 2.99 16216575
1.03 46.73 3.07 16216575
1.15 46.73 3.18 16216575
1.23 46.73 3.21 16216575
2.04 46.73 3.46 5066239
2.23 46.73 3.57 5066239
2.26 46.73 3.59 5066239
2.44 46.73 3.66 5066239
2.62 46.73 3.74 5066239
2.84 46.73 3.77 5066239
2.93 46.73 3.79 18313984
3.02 46.73 3.8 18313984
3.08 46.73 3.81 18313984
3.31 46.73 0.68 16216831
3.23 46.73 0.87 16216831
3.28 46.73 0.82 16216831
3.23 46.73 1.69 16216831
3.01 46.73 1.85 16216831
3.22 46.73 1.84 16216831
1.43 46.73 1.91 5066239
1.63 46.73 1.9 5066239
1.8 46.73 1.91 5066239
2.02 46.73 1.92 5066239
2.21 46.73 1.98 5066239
2.42 46.73 1.97 5066239
2.63 46.73 1.86 5066239
2.83 46.73 1.84 5066239
2.24 46.73 2.0 5066239
2.3 46.73 2.0 5066239
2.57 46.73 2.01 5066239
1.44 46.73 2.99 5066239
1.27 46.73 3.16 5066239
1.63 46.73 3.18 5066239
1.65 46.73 3.19 5066239
1.83 46.73 3.34 5066239
1.91 46.73 3.39 5066239
0.87 46.35 1.37 16216575
0.89 46.35 1.54 16216575
0.96 46.35 1.79 16216575
0.94 46.35 1.8 16216575
1.16 46.35 1.81 16216575
0.94 46.35 2.78 18313728
1.14 46.35 2.78 18313728
2.12 46.35 2.57 5066239
2.17 46.35 2.53 5066239
1.35 46.35 2.77 5066239
1.54 46.35 2.76 5066239
1.74 46.35 2.77 5066239
1.94 46.35 2.77 5066239
2.14 46.35 2.75 5066239
2.34 46.35 2.74 5066239
2.55 46.35 2.74 5066239
2.76 46.35 2.72 5066239
2.95 46.35 2.68 18313984
3.16 46.35 2.61 18313984
3.2 46.35 2.6 18313984
3.32 46.35 1.29 16216831
3.31 46.35 1.52 16216831
3.3 46.35 1.67 16216831
2.96 46.35 1.96 16216831
3.11 46.35 1.96 16216831
3.29 46.35 1.92 16216831
3.28 46.35 2.04 16216831
3.27 46.35 2.24 16216831
3.25 46.35 2.4 16216831
1.75 46.35 1.69 5066239
1.93 46.35 1.7 5066239
1.34 46.35 1.81 5066239
1.54 46.35 1.8 5066239
1.95 46.35 1.89 5066239
2.16 46.35 1.9 5066239
2.23 46.35 1.98 5066239
2.76 46.35 1.94 5066239
2.25 46.35 2.01 5066239
2.58 46.35 2.04 5066239
0.84 45.91 1.13 16216575
1.01 45.91 1.25 16216575
1.21 45.91 1.25 16216575
1.79 45.91 3.44 5066239
2.42 45.91 3.41 5066239
1.83 45.91 3.69 5066239
1.9 45.91 3.63 5066239
2.22 45.91 3.7 5066239
2.4 45.91 3.6 5066239
3.38 45.91 0.93 16216831
3.36 45.91 1.1 16216831
3.33 45.91 1.21 16216831
2.95 45.91 1.62 16216831
3.03 45.91 1.96 16216831
3.05 45.91 2.17 16216831
3.27 45.91 2.16 16216831
3.23 45.91 2.26 16216831
3.27 45.91 2.24 16216831
3.11 45.91 2.58 16216831
3.21 45.91 2.78 16216831
3.28 45.91 2.79 16216831
3.32 45.91 2.8 16216831
1.42 45.91 1.25 5066239
1.59 45.91 1.38 5066239
1.62 45.91 1.58 5066239
2.23 45.91 1.53 5066239
2.41 45.91 1.49 5066239
2.61 45.91 1.49 5066239
2.83 45.91 1.48 5066239
2.92 45.91 1.5 5066239
1.65 45.91 1.74 5066239
1.67 45.91 1.95 5066239
1.69 45.91 2.18 5066239
2.38 45.91 2.04 5066239
1.72 45.91 2.39 5066239
2.22 45.91 2.2 5066239
2.24 45.91 2.27 5066239
1.7 45.91 2.57 5066239
1.82 45.91 2.78 5066239
1.94 45.91 2.79 5066239
2.18 45.91 2.79 5066239
2.38 45.91 2.73 5066239
1.78 45.91 2.8 5066239
2.4 45.91 2.83 5066239
2.41 45.91 3.01 5066239
2.42 45.91 3.23 5066239
0.9 45.52 1.25 16216575
0.94 45.52 1.55 16216575
1.23 45.52 1.49 16216575
0.95 45.52 1.63 16216575
0.93 45.52 2.26 16216575
1.04 45.52 2.44 16216575
1.23 45.52 2.44 16216575
0.94 45.52 2.6 16216575
0.95 45.52 2.81 16216575
0.94 45.52 3.0 16216575
0.94 45.52 3.21 16216575
2.39 45.52 3.39 5066239
1.72 45.52 3.59 5066239
2.33 45.52 3.55 5066239
1.8 45.52 3.77 5066239
1.85 45.52 3.74 5066239
2.36 45.52 3.77 5066239
3.41 45.52 0.93 16216831
3.38 45.52 1.07 16216831
3.35 45.52 1.21 16216831
3.24 45.52 1.51 16216831
3.28 45.52 1.46 16216831
3.21 45.52 1.61 16216831
3.29 45.52 2.26 16216831
3.23 45.52 2.47 16216831
3.27 45.52 2.41 16216831
3.22 45.52 2.67 16216831
3.22 45.52 2.83 16216831
3.31 45.52 3.18 16216831
3.24 45.52 3.22 16216831
3.31 45.52 3.22 16216831
1.4 45.52 1.49 5066239
1.84 45.52 1.5 5066239
1.55 45.52 2.37 5066239
1.41 45.52 2.44 5066239
1.64 45.52 2.45 5066239
1.83 45.52 2.45 5066239
2.02 45.52 2.44 5066239
2.24 45.52 2.45 5066239
2.42 45.52 2.45 5066239
2.64 45.52 2.44 5066239
2.84 45.52 2.44 5066239
1.64 45.52 2.76 5066239
1.64 45.52 2.83 5066239
1.67 45.52 2.98 5066239
1.68 45.52 3.18 5066239
1.69 45.52 3.38 5066239
0.86 45.07 1.14 16216575
0.91 45.07 1.3 16216575
0.96 45.07 1.59 16216575
0.89 45.07 2.33 16216575
1.04 45.07 2.48 16216575
1.22 45.07 2.48 16216575
0.96 45.07 2.62 16216575
0.97 45.07 2.8 16216575
0.97 45.07 3.02 18313728
0.95 45.07 3.22 18313728
3.21 45.07 2.99 18313984
3.22 45.07 3.18 18313984
3.31 45.07 3.16 18313984
3.23 45.07 3.23 18313984
3.32 45.07 3.21 18313984
3.37 45.07 1.01 16216831
3.35 45.07 1.21 16216831
3.3 45.07 2.28 16216831
3.24 45.07 2.5 16216831
3.29 45.07 2.45 16216831
3.22 45.07 2.62 16216831
1.43 45.07 2.47 5066239
1.63 45.07 2.47 5066239
1.84 45.07 2.47 5066239
2.04 45.07 2.47 5066239
2.24 45.07 2.47 5066239
2.44 45.07 2.48 5066239
2.62 45.07 2.46 5066239
2.83 45.07 2.47 5066239
2.85 45.07 2.47 5066239
0.91 44.63 1.32 16216575
0.94 44.63 1.56 16216575
0.96 44.63 1.71 16216575
0.9 44.63 2.32 16216575
1.04 44.63 2.51 16216575
1.22 44.63 2.5 16216575
0.95 44.63 2.61 16216575
0.96 44.63 2.83 16216575
0.97 44.63 3.02 18313728
0.95 44.63 3.22 18313728
3.23 44.63 3.18 18313984
3.24 44.63 3.26 18313984
3.32 44.63 3.22 18313984
3.41 44.63 0.93 16216831
3.38 44.63 1.04 16216831
3.38 44.63 1.2 16216831
3.24 44.63 1.54 16216831
3.29 44.63 1.41 16216831
3.35 44.63 2.23 16216831
3.24 44.63 2.54 16216831
3.29 44.63 2.4 16216831
3.23 44.63 2.64 16216831
3.23 44.63 2.81 16216831
1.42 44.63 2.5 5066239
1.62 44.63 2.5 5066239
1.83 44.63 2.53 5066239
2.04 44.63 2.48 5066239
2.22 44.63 2.5 5066239
2.43 44.63 2.5 5066239
2.64 44.63 2.49 5066239
2.84 44.63 2.49 5066239
2.87 44.63 2.49 5066239
2.04 44.63 2.68 5066239
2.13 44.63 2.66 5066239
0.96 44.17 1.58 16216575
0.98 44.17 1.72 16216575
1.06 44.17 2.53 16216575
1.23 44.17 2.51 16216575
0.99 44.17 2.61 16216575
0.98 44.17 2.81 16216575
0.99 44.17 3.01 18313728
0.98 44.17 3.21 18313728
3.25 44.17 3.19 18313984
3.26 44.17 3.31 18313984
3.34 44.17 3.23 18313984
3.42 44.17 1.26 16216831
3.25 44.17 1.58 16216831
3.37 44.17 1.41 16216831
3.25 44.17 1.68 16216831
3.33 44.17 2.31 16216831
3.26 44.17 2.56 16216831
3.31 44.17 2.4 16216831
3.25 44.17 2.65 16216831
3.25 44.17 2.96 16216831
1.44 44.17 2.52 5066239
1.48 44.17 2.52 5066239
1.86 44.17 2.55 5066239
2.65 44.17 2.51 5066239
2.85 44.17 2.52 5066239
2.9 44.17 2.51 5066239
1.85 44.17 2.77 5066239
2.04 44.17 2.76 5066239
2.26 44.17 2.79 5066239
2.37 44.17 2.78 5066239
2.66 44.17 2.73 5066239
2.68 44.17 2.65 5066239
1.84 44.17 2.82 5066239
2.04 44.17 2.82 5066239
2.25 44.17 2.86 5066239
2.46 44.17 2.82 5066239
2.61 44.17 2.8 5066239
0.95 43.76 1.28 16216575
0.96 43.76 1.57 16216575
0.99 43.76 1.66 16216575
0.93 43.76 2.35 16216575
1.06 43.76 2.57 16216575
1.25 43.76 2.53 16216575
1.03 43.76 2.61 16216575
0.99 43.76 2.82 16216575
1.0 43.76 3.01 18313728
1.0 43.76 3.22 18313728
3.26 43.76 3.18 18313984
3.27 43.76 3.33 18313984
3.36 43.76 3.27 18313984
3.4 43.76 1.19 16216831
3.38 43.76 1.23 16216831
3.27 43.76 1.56 16216831
3.33 43.76 1.46 16216831
3.26 43.76 1.63 16216831
3.34 43.76 2.28 16216831
3.27 43.76 2.58 16216831
3.33 43.76 2.44 16216831
3.27 43.76 2.63 16216831
3.27 43.76 2.81 16216831
1.47 43.76 2.54 5066239
1.66 43.76 2.55 5066239
1.83 43.76 2.55 5066239
2.66 43.76 2.53 5066239
2.86 43.76 2.54 5066239
2.91 43.76 2.54 5066239
1.79 43.76 2.74 5066239
2.58 43.76 2.64 5066239
1.87 43.76 2.85 5066239
2.06 43.76 2.88 5066239
2.27 43.76 2.88 5066239
2.47 43.76 2.86 5066239
2.61 43.76 2.81 5066239
0.95 43.3 1.29 16216575
0.93 43.3 2.35 16216575
0.93 43.3 2.58 16216575
1.25 43.3 2.57 16216575
1.06 43.3 2.6 16216575
0.99 43.3 2.82 16216575
0.99 43.3 3.0 16216575
0.98 43.3 3.21 18313728
3.25 43.3 3.19 18313984
3.25 43.3 3.31 18313984
3.35 43.3 3.28 18313984
3.42 43.3 0.96 16216831
3.4 43.3 1.0 16216831
3.39 43.3 1.23 16216831
3.32 43.3 1.41 16216831
3.26 43.3 1.6 16216831
3.33 43.3 2.22 16216831
3.19 43.3 2.58 16216831
3.32 43.3 2.49 16216831
3.26 43.3 2.61 16216831
3.28 43.3 2.6 16216831
3.25 43.3 2.99 16216831
3.27 43.3 2.85 16216831
1.4 43.3 2.58 5066239
1.65 43.3 2.57 5066239
1.77 43.3 2.57 5066239
2.66 43.3 2.56 5066239
2.85 43.3 2.56 5066239
2.9 43.3 2.56 5066239
1.74 43.3 2.75 5066239
2.59 43.3 2.61 5066239
1.85 43.3 2.89 5066239
2.05 43.3 2.9 5066239
2.24 43.3 2.91 5066239
2.44 43.3 2.92 5066239
2.57 43.3 2.81 5066239
0.97 42.86 1.31 16216575
0.96 42.86 1.57 16216575
1.01 42.86 1.71 16216575
0.95 42.86 2.36 16216575
0.93 42.86 2.56 16216575
1.26 42.86 2.59 16216575
1.07 42.86 2.61 16216575
1.17 42.86 2.6 16216575
1.01 42.86 2.8 16216575
1.01 42.86 3.02 16216575
1.01 42.86 3.2 18313728
3.27 42.86 3.17 18313984
3.28 42.86 3.1 18313984
3.27 42.86 3.36 18313984
3.37 42.86 3.34 18313984
3.4 42.86 1.01 16216831
3.39 42.86 1.24 16216831
3.34 42.86 1.51 16216831
3.27 42.86 1.66 16216831
3.28 42.86 1.6 16216831
3.35 42.86 2.31 16216831
3.18 42.86 2.59 16216831
3.34 42.86 2.5 16216831
3.27 42.86 2.73 16216831
3.32 42.86 2.61 16216831
3.27 42.86 2.94 16216831
3.28 42.86 2.85 16216831
1.33 42.86 2.58 5066239
1.64 42.86 2.59 5066239
2.67 42.86 2.59 5066239
2.87 42.86 2.59 5066239
2.9 42.86 2.58 5066239
1.45 42.86 2.6 5066239
1.66 42.86 2.6 5066239
1.72 42.86 2.75 5066239
2.53 42.86 2.63 5066239
2.84 42.86 2.6 5066239
1.86 42.86 2.9 5066239
2.05 42.86 2.89 5066239
2.26 42.86 2.9 5066239
2.46 42.86 2.91 5066239
2.55 42.86 2.82 5066239
0.96 42.49 1.33 16216575
0.95 42.49 2.37 16216575
0.93 42.49 2.58 16216575
1.05 42.49 2.67 16216575
1.26 42.49 2.62 16216575
1.01 42.49 2.8 16216575
1.01 42.49 3.02 16216575
1.01 42.49 3.2 18313728
0.97 42.49 3.4 18313728
3.27 42.49 3.17 18313984
3.37 42.49 3.33 18313984
3.37 42.49 3.4 18313984
3.4 42.49 1.17 16216831
3.39 42.49 1.25 16216831
3.33 42.49 1.49 16216831
3.28 42.49 1.6 16216831
3.34 42.49 2.35 16216831
2.99 42.49 2.59 16216831
3.14 42.49 2.59 16216831
3.34 42.49 2.57 16216831
3.26 42.49 2.67 16216831
3.34 42.49 2.61 16216831
3.28 42.49 2.85 16216831
1.46 42.49 2.6 5066239
1.65 42.49 2.6 5066239
1.68 42.49 2.77 5066239
2.66 42.49 2.61 5066239
2.86 42.49 2.61 5066239
2.92 42.49 2.61 5066239
1.65 42.49 2.93 5066239
1.86 42.49 2.93 5066239
2.05 42.49 2.93 5066239
2.26 42.49 2.93 5066239
2.45 42.49 2.93 5066239
2.51 42.49 2.82 5066239
0.97 42.06 1.3 16216575
0.96 42.06 1.57 16216575
1.02 42.06 1.78 16216575
0.97 42.06 2.38 16216575
0.98 42.06 2.41 16216575
1.07 42.06 2.68 16216575
1.18 42.06 2.64 16216575
1.01 42.06 2.8 16216575
1.01 42.06 3.02 16216575
1.02 42.06 3.21 18313728
0.98 42.06 3.41 18313728
3.28 42.06 3.17 18313984
3.37 42.06 3.34 18313984
3.37 42.06 3.42 18313984
3.43 42.06 1.31 16216831
3.39 42.06 1.4 16216831
3.27 42.06 1.65 16216831
3.31 42.06 1.6 16216831
3.34 42.06 2.35 16216831
3.33 42.06 2.46 16216831
3.26 42.06 2.7 16216831
3.34 42.06 2.63 16216831
3.29 42.06 2.86 16216831
1.45 42.06 2.63 5066239
1.64 42.06 2.76 5066239
2.46 42.06 2.63 5066239
2.67 42.06 2.63 5066239
2.87 42.06 2.64 5066239
2.91 42.06 2.63 5066239
1.67 42.06 2.95 5066239
1.87 42.06 2.95 5066239
2.06 42.06 2.94 5066239
2.27 42.06 2.95 5066239
2.47 42.06 2.8 5066239
0.92 41.63 1.3 16216575
0.98 41.63 1.52 16216575
0.97 41.63 1.64 16216575
0.99 41.63 2.39 16216575
0.98 41.63 2.47 16216575
1.1 41.63 2.67 16216575
1.23 41.63 2.65 16216575
1.02 41.63 2.81 16216575
1.03 41.63 3.01 16216575
1.04 41.63 3.22 18313728
1.01 41.63 3.4 18313728
3.29 41.63 3.19 18313984
3.29 41.63 3.38 18313984
3.39 41.63 3.39 18313984
3.29 41.63 3.41 18313984
3.39 41.63 3.43 18313984
3.41 41.63 1.2 16216831
3.28 41.63 1.7 16216831
3.28 41.63 1.8 16216831
3.4 41.63 1.82 16216831
3.36 41.63 2.26 16216831
3.3 41.63 2.72 16216831
3.36 41.63 2.62 16216831
3.3 41.63 2.85 16216831
1.49 41.63 2.65 5066239
1.61 41.63 2.72 5066239
2.47 41.63 2.75 5066239
2.7 41.63 2.65 5066239
2.9 41.63 2.65 5066239
2.94 41.63 2.66 5066239
1.7 41.63 2.95 5066239
1.88 41.63 2.95 5066239
2.1 41.63 2.95 5066239
2.29 41.63 2.98 5066239
2.44 41.63 2.81 5066239
2.54 41.63 2.8 5066239
0.97 41.23 1.31 16216575
0.97 41.23 1.57 16216575
0.97 41.23 2.12 16216575
0.94 41.23 2.39 16216575
0.98 41.23 2.48 16216575
1.04 41.23 2.76 16216575
1.26 41.23 2.69 16216575
1.03 41.23 2.81 16216575
1.03 41.23 3.01 16216575
1.03 41.23 3.22 18313728
1.02 41.23 3.4 18313728
3.29 41.23 3.38 18313984
3.39 41.23 3.43 18313984
3.43 41.23 0.85 16216831
3.37 41.23 1.02 16216831
3.36 41.23 1.27 16216831
3.34 41.23 1.41 16216831
3.33 41.23 1.61 16216831
3.4 41.23 2.5 16216831
3.25 41.23 2.72 16216831
3.36 41.23 2.63 16216831
3.3 41.23 2.84 16216831
3.3 41.23 3.0 16216831
1.44 41.23 2.69 5066239
1.56 41.23 2.77 5066239
1.85 41.23 2.69 5066239
2.04 41.23 2.69 5066239
2.25 41.23 2.69 5066239
2.46 41.23 2.71 5066239
2.65 41.23 2.68 5066239
2.85 41.23 2.69 5066239
2.93 41.23 2.67 5066239
1.66 41.23 2.99 5066239
1.86 41.23 2.9 5066239
1.96 41.23 2.89 5066239
2.23 41.23 2.97 5066239
2.41 41.23 2.94 5066239
0.99 40.76 1.33 16216575
1.01 40.76 2.37 16216575
0.98 40.76 2.4 16216575
1.06 40.76 2.77 16216575
1.25 40.76 2.71 16216575
1.04 40.76 2.82 16216575
1.03 40.76 3.01 16216575
1.02 40.76 3.21 18313728
1.02 40.76 3.41 18313728
3.4 40.76 3.21 18313984
3.39 40.76 3.42 18313984
3.4 40.76 1.18 16216831
3.39 40.76 1.28 16216831
3.35 40.76 1.45 16216831
3.34 40.76 1.62 16216831
3.37 40.76 2.3 16216831
3.35 40.76 2.41 16216831
3.26 40.76 2.74 16216831
3.36 40.76 2.7 16216831
3.36 40.76 2.81 16216831
3.4 40.76 3.13 16216831
1.45 40.76 2.7 5066239
1.65 40.76 2.7 5066239
1.86 40.76 2.71 5066239
2.06 40.76 2.71 5066239
2.26 40.76 2.7 5066239
2.46 40.76 2.71 5066239
2.66 40.76 2.7 5066239
2.86 40.76 2.71 5066239
2.92 40.76 2.71 5066239
1.02 40.32 1.34 16216575
0.99 40.32 1.57 16216575
1.05 40.32 1.75 16216575
1.05 40.32 1.85 16216575
1.05 40.32 2.4 16216575
1.04 40.32 2.79 16216575
1.27 40.32 2.72 16216575
1.07 40.32 2.82 16216575
1.09 40.32 2.8 16216575
1.07 40.32 3.01 16216575
1.06 40.32 3.21 18313728
1.06 40.32 3.41 18313728
3.32 40.32 3.38 18313984
3.42 40.32 3.43 18313984
3.43 40.32 0.88 16216831
3.38 40.32 1.04 16216831
3.39 40.32 2.32 16216831
3.39 40.32 2.4 16216831
3.28 40.32 2.76 16216831
3.39 40.32 2.68 16216831
3.33 40.32 2.82 16216831
3.34 40.32 3.04 16216831
1.47 40.32 2.72 5066239
1.67 40.32 2.72 5066239
1.88 40.32 2.72 5066239
2.07 40.32 2.72 5066239
2.27 40.32 2.72 5066239
2.47 40.32 2.72 5066239
2.67 40.32 2.72 5066239
2.87 40.32 2.72 5066239
2.97 40.32 2.72 5066239
0.99 39.91 1.34 16216575
0.97 39.91 1.96 16216575
0.94 39.91 2.39 16216575
1.05 39.91 2.4 16216575
1.01 39.91 2.78 16216575
1.26 39.91 2.75 16216575
1.08 39.91 2.82 16216575
1.1 39.91 2.81 16216575
1.06 39.91 3.0 16216575
1.06 39.91 3.21 18313728
1.05 39.91 3.4 18313728
3.32 39.91 3.38 18313984
3.42 39.91 3.5 18313984
3.42 39.91 1.11 16216831
3.4 39.91 1.7 16216831
3.38 39.91 1.83 16216831
3.4 39.91 2.28 16216831
3.26 39.91 2.78 16216831
3.39 39.91 2.72 16216831
3.33 39.91 2.82 16216831
3.31 39.91 3.17 16216831
1.46 39.91 2.74 5066239
1.66 39.91 2.75 5066239
1.87 39.91 2.75 5066239
2.06 39.91 2.75 5066239
2.27 39.91 2.74 5066239
2.46 39.91 2.75 5066239
2.67 39.91 2.75 5066239
2.88 39.91 2.74 5066239
2.94 39.91 2.75 5066239
1.21 39.45 0.79 16216575
1.02 39.45 0.81 16216575
1.14 39.45 0.81 16216575
1.0 39.45 1.02 16216575
1.21 39.45 1.04 16216575
1.0 39.45 2.96 16216575
1.0 39.45 3.12 16216575
0.96 39.45 3.38 18313728
1.03 39.45 3.55 18313728
1.22 39.45 3.57 18313728
1.43 39.45 3.54 5066239
1.62 39.45 3.54 5066239
1.82 39.45 3.47 5066239
1.89 39.45 3.44 5066239
3.34 39.45 3.37 18313984
3.41 39.45 3.56 18313984
3.0 39.45 2.77 16216831
3.23 39.45 2.77 16216831
3.26 39.45 2.78 16216831
3.34 39.45 2.99 16216831
3.34 39.45 3.19 16216831
2.39 39.45 0.3 5066239
2.82 39.45 0.36 5066239
2.15 39.45 0.59 5066239
2.42 39.45 0.48 5066239
1.62 39.45 0.76 5066239
1.83 39.45 0.75 5066239
2.03 39.45 0.71 5066239
2.23 39.45 0.61 5066239
1.41 39.45 0.8 5066239
1.57 39.45 0.82 5066239
1.43 39.45 1.04 5066239
1.46 39.45 1.04 5066239
2.62 39.45 2.77 5066239
2.82 39.45 2.77 5066239
1.91 38.99 0.29 16216575
3.31 38.99 0.76 18313984
3.42 38.99 0.79 18313984
3.49 38.99 0.83 18313984
3.52 38.99 0.84 18313984
2.08 38.99 0.34 5066239
2.31 38.99 0.28 5066239
2.48 38.99 0.24 5066239
2.71 38.99 0.33 5066239
2.72 38.99 0.23 5066239
1.76 38.58 0.21 16216575
2.56 38.58 0.37 5066239
2.6 38.58 0.42 5066239
2.92 38.58 0.27 16216831
1.93 38.58 0.24 5066239
2.06 38.58 0.2 5066239
2.32 38.58 0.23 5066239
2.68 38.58 0.33 5066239
1.65 38.11 0.22 16216575
2.52 38.11 0.37 5066239
2.56 38.11 0.4 5066239
2.6 38.11 0.41 5066239
2.74 38.11 0.2 16216831
2.87 38.11 0.27 16216831
1.97 38.11 0.24 5066239
2.15 38.11 0.26 5066239
2.34 38.11 0.2 5066239
1.59 37.71 0.79 18313728
1.82 37.71 0.79 5066239
2.02 37.71 0.77 5066239
2.22 37.71 0.77 5066239
2.4 37.71 0.79 5066239
1.93 37.71 0.8 5066239
2.17 37.71 0.8 5066239
2.37 37.71 0.8 5066239
2.78 37.71 0.79 18313984
2.6 37.71 0.81 18313984
2.82 37.71 0.8 18313984
2.62 37.71 0.36 16216831
2.74 37.71 0.36 16216831
2.83 37.71 0.28 16216831
2.81 37.71 0.45 16216831
2.84 37.71 0.42 16216831
2.83 37.71 0.72 16216831
1.7 37.71 0.27 5066239
1.35 37.26 0.99 16216575
1.34 37.26 1.18 16216575
1.39 37.26 1.18 16216575
1.51 37.26 1.25 16216575
1.92 37.26 1.75 5066239
2.11 37.26 1.71 5066239
2.33 37.26 1.75 5066239
2.54 37.26 1.77 5066239
2.64 37.26 1.63 5066239
3.32 37.26 0.76 16216831
3.43 37.26 0.66 16216831
3.24 37.26 0.81 16216831
3.25 37.26 1.0 16216831
3.13 37.26 1.2 16216831
3.16 37.26 1.2 16216831
2.53 37.26 0.91 5066239
2.74 37.26 0.88 5066239
2.93 37.26 0.82 5066239
1.93 37.26 1.13 5066239
2.13 37.26 1.07 5066239
2.34 37.26 1.07 5066239
2.73 37.26 1.19 5066239
2.82 37.26 1.19 5066239
2.96 37.26 1.19 5066239
1.72 37.26 1.27 5066239
2.71 37.26 1.2 5066239
2.94 37.26 1.2 5066239
2.69 37.26 1.4 5066239
0.95 36.8 1.18 16216575
1.2 36.8 1.19 16216575
1.08 36.8 1.2 16216575
1.16 36.8 1.2 16216575
1.9 36.8 1.72 5066239
2.1 36.8 1.75 5066239
2.28 36.8 1.75 5066239
2.48 36.8 1.77 5066239
2.27 36.8 1.82 5066239
2.37 36.8 1.81 5066239
2.58 36.8 1.8 5066239
3.43 36.8 1.05 16216831
3.08 36.8 1.21 16216831
3.3 36.8 1.2 16216831
3.33 36.8 1.2 16216831
1.68 36.8 1.19 5066239
1.5 36.8 1.28 5066239
1.65 36.8 1.21 5066239
1.79 36.8 1.39 5066239
1.64 36.8 1.52 5066239
1.83 36.8 1.59 5066239
2.69 36.8 1.54 5066239
2.89 36.8 1.58 5066239
3.0 36.8 1.41 5066239
1.66 36.8 1.61 5066239
2.55 36.8 1.62 5066239
2.82 36.8 1.6 5066239
1.03 36.39 0.51 16216575
1.23 36.39 0.5 16216575
1.04 36.39 1.02 16216575
1.07 36.39 1.12 16216575
1.05 36.39 1.2 16216575
1.18 36.39 1.36 16216575
1.25 36.39 1.43 16216575
2.05 36.39 1.76 5066239
2.22 36.39 1.79 5066239
2.45 36.39 1.78 5066239
2.6 36.39 1.71 5066239
2.24 36.39 1.81 5066239
2.37 36.39 1.8 5066239
3.05 36.39 0.2 16216831
3.46 36.39 1.04 16216831
3.04 36.39 1.22 16216831
3.14 36.39 1.37 16216831
3.42 36.39 1.22 16216831
2.85 36.39 0.34 5066239
1.36 36.39 0.51 5066239
2.01 36.39 0.59 5066239
2.38 36.39 0.56 5066239
2.7 36.39 0.42 5066239
1.55 36.39 0.78 5066239
1.72 36.39 0.74 5066239
2.05 36.39 0.61 5066239
2.19 36.39 0.6 5066239
2.45 36.39 0.65 5066239
2.55 36.39 0.74 5066239
2.75 36.39 0.69 5066239
1.65 36.39 0.88 5066239
1.7 36.39 0.84 5066239
2.37 36.39 0.81 5066239
2.64 36.39 0.83 5066239
2.69 36.39 0.81 5066239
1.64 36.39 1.22 5066239
1.86 36.39 1.22 5066239
1.97 36.39 1.34 5066239
2.17 36.39 1.36 5066239
1.43 36.39 1.4 5066239
2.05 36.39 1.59 5066239
2.19 36.39 1.45 5066239
2.79 36.39 1.49 5066239
2.97 36.39 1.55 5066239
2.85 36.39 1.61 5066239
2.89 36.39 1.6 5066239
1.15 35.93 0.21 16216575
1.16 35.93 0.45 16216575
1.17 35.93 0.6 16216575
1.09 35.93 0.98 16216575
1.18 35.93 0.82 16216575
1.08 35.93 1.02 16216575
1.14 35.93 1.09 16216575
1.01 35.93 1.2 16216575
2.24 35.93 1.34 5066239
3.27 35.93 0.42 16216831
3.46 35.93 0.47 16216831
3.58 35.93 0.44 16216831
3.28 35.93 1.14 16216831
3.46 35.93 1.03 16216831
3.56 35.93 1.15 16216831
3.47 35.93 1.21 16216831
3.07 35.93 0.31 5066239
1.61 35.93 0.55 5066239
1.64 35.93 0.77 5066239
2.67 35.93 0.72 5066239
2.88 35.93 0.77 5066239
2.93 35.93 0.77 5066239
1.7 35.93 0.89 5066239
1.87 35.93 0.87 5066239
2.07 35.93 0.87 5066239
2.29 35.93 0.81 5066239
2.35 35.93 0.83 5066239
2.06 35.93 1.01 5066239
0.95 35.46 0.49 16216575
1.13 35.46 0.99 16216575
1.08 35.46 1.09 16216575
1.91 35.46 3.45 5066239
1.98 35.46 3.54 5066239
2.94 35.46 3.57 5066239
1.92 35.46 3.61 5066239
2.51 35.46 3.76 5066239
2.74 35.46 3.67 5066239
2.9 35.46 3.6 5066239
1.92 35.46 3.8 5066239
2.47 35.46 3.8 5066239
2.61 35.46 3.8 5066239
3.13 35.46 3.46 18313984
3.34 35.46 0.52 16216831
3.43 35.46 0.51 16216831
3.54 35.46 0.63 16216831
3.4 35.46 1.17 16216831
3.34 35.46 1.29 16216831
3.39 35.46 1.23 16216831
3.34 35.46 2.12 16216831
3.41 35.46 2.06 16216831
3.39 35.46 2.78 16216831
3.39 35.46 2.95 16216831
3.39 35.46 3.0 16216831
3.34 35.46 3.35 16216831
3.38 35.46 3.21 16216831
3.29 35.46 3.4 16216831
1.82 35.46 1.33 5066239
1.83 35.46 1.59 5066239
1.84 35.46 1.63 5066239
1.8 35.46 1.96 5066239
1.81 35.46 2.16 5066239
1.84 35.46 2.36 5066239
1.87 35.46 2.58 5066239
2.14 35.46 2.58 5066239
2.33 35.46 2.56 5066239
1.93 35.46 2.69 5066239
1.96 35.46 2.68 5066239
1.03 35.08 0.76 16216575
1.06 35.08 0.75 16216575
1.07 35.08 0.86 16216575
1.04 35.08 1.25 16216575
1.08 35.08 1.31 16216575
1.09 35.08 1.41 16216575
1.2 35.08 2.3 16216575
1.04 35.08 2.41 16216575
1.03 35.08 2.62 16216575
1.04 35.08 2.83 16216575
1.04 35.08 3.01 16216575
1.05 35.08 3.08 16216575
1.02 35.08 3.21 16216575
1.04 35.08 3.41 16216575
1.24 35.08 3.59 18313728
1.25 35.08 3.59 18313728
1.44 35.08 3.74 5066239
1.49 35.08 3.79 5066239
1.63 35.08 3.89 5066239
1.84 35.08 3.89 5066239
2.04 35.08 3.88 5066239
2.22 35.08 3.89 5066239
2.42 35.08 3.89 5066239
2.62 35.08 3.89 5066239
3.41 35.08 1.2 16216831
3.34 35.08 1.42 16216831
3.42 35.08 2.0 16216831
3.37 35.08 2.22 16216831
3.31 35.08 2.4 16216831
3.32 35.08 2.67 16216831
3.39 35.08 3.15 16216831
3.39 35.08 3.2 16216831
1.44 35.08 2.32 5066239
1.63 35.08 2.32 5066239
1.83 35.08 2.33 5066239
2.03 35.08 2.33 5066239
2.22 35.08 2.33 5066239
2.43 35.08 2.34 5066239
2.63 35.08 2.34 5066239
2.84 35.08 2.33 5066239
2.9 35.08 2.33 5066239
1.05 34.61 1.31 16216575
1.13 34.61 2.34 16216575
1.33 34.61 2.32 16216575
1.07 34.61 2.4 16216575
1.05 34.61 2.6 16216575
1.06 34.61 2.84 16216575
1.04 34.61 3.01 18313728
1.04 34.61 3.2 18313728
3.31 34.61 2.98 18313984
3.3 34.61 3.19 18313984
3.41 34.61 3.16 18313984
3.32 34.61 3.22 18313984
3.41 34.61 3.21 18313984
3.44 34.61 2.09 16216831
3.1 34.61 2.36 16216831
3.24 34.61 2.38 16216831
3.4 34.61 2.26 16216831
3.31 34.61 2.59 16216831
3.38 34.61 2.44 16216831
3.31 34.61 2.77 16216831
3.38 34.61 2.71 16216831
1.51 34.61 2.33 5066239
1.7 34.61 2.33 5066239
1.92 34.61 2.33 5066239
2.11 34.61 2.33 5066239
2.33 34.61 2.33 5066239
2.51 34.61 2.35 5066239
2.73 34.61 2.34 5066239
2.93 34.61 2.34 5066239
1.03 34.16 1.15 16216575
1.1 34.16 1.36 16216575
1.1 34.16 1.47 16216575
1.13 34.16 2.34 16216575
1.33 34.16 2.33 16216575
1.07 34.16 2.4 16216575
1.07 34.16 2.61 16216575
1.07 34.16 2.81 16216575
1.06 34.16 3.03 18313728
1.05 34.16 3.2 18313728
3.31 34.16 2.98 18313984
3.3 34.16 3.18 18313984
3.42 34.16 3.18 18313984
3.32 34.16 3.21 18313984
3.41 34.16 3.22 18313984
3.43 34.16 1.18 16216831
3.41 34.16 1.24 16216831
3.44 34.16 2.09 16216831
3.24 34.16 2.38 16216831
3.4 34.16 2.26 16216831
3.32 34.16 2.58 16216831
3.34 34.16 2.41 16216831
3.33 34.16 2.67 16216831
3.34 34.16 2.73 16216831
1.52 34.16 2.34 5066239
1.71 34.16 2.34 5066239
1.92 34.16 2.34 5066239
2.12 34.16 2.34 5066239
2.33 34.16 2.33 5066239
2.52 34.16 2.35 5066239
2.73 34.16 2.35 5066239
2.93 34.16 2.34 5066239
2.97 34.16 2.39 5066239
1.07 33.76 1.38 16216575
1.14 33.76 2.36 16216575
1.31 33.76 2.34 16216575
1.09 33.76 2.41 16216575
1.05 33.76 2.6 16216575
1.06 33.76 2.81 16216575
1.06 33.76 3.0 18313728
1.05 33.76 3.2 18313728
3.33 33.76 2.96 18313984
3.32 33.76 3.17 18313984
3.34 33.76 3.24 18313984
3.42 33.76 3.2 18313984
3.43 33.76 1.19 16216831
3.42 33.76 1.26 16216831
3.45 33.76 2.11 16216831
3.24 33.76 2.38 16216831
3.4 33.76 2.28 16216831
3.34 33.76 2.56 16216831
3.39 33.76 2.47 16216831
3.33 33.76 2.79 16216831
1.53 33.76 2.36 5066239
1.72 33.76 2.35 5066239
1.93 33.76 2.34 5066239
2.12 33.76 2.34 5066239
2.34 33.76 2.35 5066239
2.54 33.76 2.35 5066239
2.73 33.76 2.35 5066239
2.94 33.76 2.36 5066239
2.96 33.76 2.36 5066239
1.11 33.3 0.2 16216575
1.22 33.3 0.35 16216575
1.11 33.3 1.31 16216575
1.11 33.3 1.42 16216575
1.15 33.3 2.36 16216575
1.35 33.3 2.34 16216575
1.11 33.3 2.4 16216575
1.08 33.3 2.62 16216575
1.07 33.3 2.82 16216575
1.07 33.3 3.01 18313728
1.07 33.3 3.21 18313728
3.34 33.3 2.96 18313984
3.33 33.3 3.16 18313984
3.44 33.3 3.19 18313984
3.34 33.3 3.23 18313984
3.44 33.3 3.24 18313984
3.45 33.3 1.17 16216831
3.44 33.3 1.25 16216831
3.46 33.3 2.09 16216831
3.24 33.3 2.38 16216831
3.42 33.3 2.26 16216831
3.35 33.3 2.47 16216831
3.37 33.3 2.4 16216831
3.33 33.3 2.79 16216831
1.52 33.3 2.34 5066239
1.75 33.3 2.35 5066239
1.95 33.3 2.35 5066239
2.12 33.3 2.34 5066239
2.34 33.3 2.35 5066239
2.54 33.3 2.35 5066239
2.74 33.3 2.36 5066239
2.94 33.3 2.35 5066239
2.96 33.3 2.35 5066239
3.01 33.3 2.42 5066239
1.16 32.85 2.37 16216575
1.35 32.85 2.34 16216575
1.11 32.85 2.4 16216575
1.08 32.85 2.62 16216575
1.09 32.85 2.8 16216575
1.08 32.85 3.02 18313728
1.07 32.85 3.22 18313728
3.33 32.85 2.96 18313984
3.33 32.85 3.19 18313984
3.42 32.85 3.05 18313984
3.36 32.85 3.25 18313984
3.44 32.85 3.2 18313984
3.46 32.85 1.18 16216831
3.44 32.85 1.25 16216831
3.47 32.85 2.1 16216831
3.15 32.85 2.39 16216831
3.23 32.85 2.39 16216831
3.42 32.85 2.36 16216831
3.34 32.85 2.59 16216831
3.33 32.85 2.79 16216831
3.42 32.85 2.76 16216831
3.42 32.85 2.95 16216831
1.56 32.85 2.35 5066239
1.75 32.85 2.36 5066239
1.96 32.85 2.35 5066239
2.16 32.85 2.35 5066239
2.35 32.85 2.37 5066239
2.55 32.85 2.36 5066239
2.76 32.85 2.36 5066239
2.96 32.85 2.36 5066239
1.06 32.47 1.16 16216575
1.12 32.47 1.37 16216575
1.12 32.47 1.48 16216575
1.16 32.47 2.38 16216575
1.36 32.47 2.35 16216575
1.15 32.47 2.4 16216575
1.09 32.47 2.6 16216575
1.1 32.47 2.81 16216575
1.1 32.47 3.0 18313728
1.09 32.47 3.2 18313728
3.35 32.47 2.98 18313984
3.34 32.47 3.18 18313984
3.45 32.47 3.19 18313984
3.36 32.47 3.25 18313984
3.45 32.47 3.24 18313984
3.46 32.47 1.2 16216831
3.4 32.47 1.43 16216831
3.47 32.47 2.04 16216831
3.26 32.47 2.39 16216831
3.43 32.47 2.21 16216831
3.37 32.47 2.46 16216831
3.39 32.47 2.4 16216831
3.36 32.47 2.76 16216831
1.56 32.47 2.35 5066239
1.76 32.47 2.36 5066239
1.97 32.47 2.36 5066239
2.16 32.47 2.35 5066239
2.37 32.47 2.36 5066239
2.57 32.47 2.36 5066239
2.76 32.47 2.37 5066239
2.96 32.47 2.36 5066239
2.99 32.47 2.37 5066239
1.15 32.04 0.2 16216575
1.24 32.04 0.25 16216575
1.05 32.04 1.43 16216575
1.16 32.04 2.38 16216575
1.37 32.04 2.37 16216575
1.14 32.04 2.4 16216575
1.09 32.04 2.63 16216575
1.09 32.04 2.8 16216575
1.09 32.04 3.02 18313728
1.09 32.04 3.2 18313728
3.34 32.04 2.99 18313984
3.33 32.04 3.19 18313984
3.37 32.04 3.27 18313984
3.44 32.04 3.21 18313984
3.45 32.04 1.17 16216831
3.44 32.04 1.25 16216831
3.46 32.04 2.08 16216831
3.16 32.04 2.38 16216831
3.24 32.04 2.38 16216831
3.34 32.04 2.59 16216831
3.42 32.04 2.42 16216831
3.35 32.04 2.77 16216831
1.57 32.04 2.37 5066239
1.77 32.04 2.38 5066239
1.94 32.04 2.37 5066239
2.17 32.04 2.37 5066239
2.36 32.04 2.38 5066239
2.56 32.04 2.38 5066239
2.77 32.04 2.38 5066239
2.97 32.04 2.38 5066239
1.06 31.93 1.18 16216575
1.12 31.93 1.38 16216575
1.12 31.93 1.48 16216575
1.03 31.93 2.39 16216575
1.37 31.93 2.36 16216575
1.15 31.93 2.4 16216575
1.09 31.93 2.6 16216575
1.1 31.93 2.81 16216575
1.1 31.93 3.0 18313728
1.1 31.93 3.21 18313728
3.35 31.93 2.98 18313984
3.34 31.93 3.18 18313984
3.37 31.93 3.27 18313984
3.45 31.93 3.23 18313984
3.46 31.93 1.18 16216831
3.44 31.93 1.26 16216831
3.47 31.93 2.11 16216831
3.23 31.93 2.39 16216831
3.43 31.93 2.32 16216831
3.11 31.93 2.4 16216831
3.37 31.93 2.46 16216831
3.41 31.93 2.4 16216831
3.37 31.93 2.67 16216831
1.57 31.93 2.37 5066239
1.77 31.93 2.37 5066239
1.97 31.93 2.37 5066239
2.17 31.93 2.37 5066239
2.36 31.93 2.37 5066239
2.56 31.93 2.38 5066239
2.77 31.93 2.38 5066239
2.97 31.93 2.38 5066239
2.99 31.93 2.37 5066239
1.18 31.93 0.2 16216575
1.06 31.93 1.15 16216575
1.13 31.93 1.36 16216575
1.13 31.93 1.46 16216575
1.17 31.93 2.38 16216575
1.37 31.93 2.36 16216575
1.15 31.93 2.4 16216575
1.1 31.93 2.61 16216575
1.1 31.93 2.81 16216575
1.11 31.93 3.0 18313728
1.1 31.93 3.21 18313728
3.36 31.93 2.97 18313984
3.36 31.93 3.17 18313984
3.45 31.93 3.18 18313984
3.37 31.93 3.27 18313984
3.45 31.93 3.24 18313984
3.46 31.93 1.18 16216831
3.38 31.93 1.35 16216831
3.44 31.93 1.25 16216831
3.47 31.93 2.11 16216831
3.44 31.93 2.34 16216831
3.18 31.93 2.4 16216831
3.38 31.93 2.42 16216831
3.41 31.93 2.4 16216831
3.37 31.93 2.67 16216831
1.57 31.93 2.37 5066239
1.77 31.93 2.38 5066239
1.97 31.93 2.37 5066239
2.17 31.93 2.37 5066239
2.38 31.93 2.37 5066239
2.58 31.93 2.38 5066239
2.77 31.93 2.38 5066239
2.97 31.93 2.38 5066239
2.99 31.93 2.37 5066239
2.36 31.93 2.4 5066239
2.58 31.93 2.4 5066239
2.78 31.93 2.4 5066239
2.95 31.93 2.4 5066239
1.15 31.93 0.2 16216575
1.22 31.93 0.2 16216575
1.11 31.93 1.33 16216575
1.11 31.93 1.41 16216575
1.17 31.93 2.38 16216575
1.37 31.93 2.37 16216575
1.16 31.93 2.41 16216575
1.09 31.93 2.6 16216575
1.11 31.93 2.81 16216575
1.11 31.93 3.0 18313728
1.09 31.93 3.2 18313728
3.35 31.93 2.98 18313984
3.35 31.93 3.18 18313984
3.45 31.93 3.19 18313984
3.37 31.93 3.27 18313984
3.45 31.93 3.24 18313984
3.45 31.93 1.17 16216831
3.44 31.93 1.25 16216831
3.47 31.93 2.11 16216831
3.23 31.93 2.39 16216831
3.43 31.93 2.32 16216831
3.37 31.93 2.46 16216831
3.41 31.93 2.4 16216831
3.37 31.93 2.6 16216831
1.55 31.93 2.38 5066239
1.74 31.93 2.38 5066239
1.95 31.93 2.37 5066239
2.17 31.93 2.38 5066239
2.36 31.93 2.38 5066239
2.56 31.93 2.38 5066239
2.77 31.93 2.38 5066239
2.97 31.93 2.38 5066239
2.99 31.93 2.38 5066239
2.99 31.93 2.4 5066239
1.06 31.93 1.15 16216575
1.13 31.93 1.36 16216575
1.13 31.93 1.46 16216575
1.18 31.93 2.39 16216575
1.37 31.93 2.37 16216575
1.16 31.93 2.41 16216575
1.1 31.93 2.6 16216575
1.11 31.93 2.82 16216575
1.11 31.93 3.0 18313728
1.1 31.93 3.21 18313728
3.36 31.93 2.97 18313984
3.35 31.93 3.18 18313984
3.37 31.93 3.27 18313984
3.45 31.93 3.2 18313984
3.47 31.93 2.13 16216831
3.19 31.93 2.39 16216831
3.44 31.93 2.35 16216831
3.14 31.93 2.4 16216831
3.38 31.93 2.44 16216831
3.42 31.93 2.41 16216831
3.37 31.93 2.61 16216831
1.58 31.93 2.38 5066239
1.77 31.93 2.38 5066239
1.97 31.93 2.37 5066239
2.17 31.93 2.38 5066239
2.38 31.93 2.38 5066239
2.58 31.93 2.39 5066239
2.77 31.93 2.38 5066239
2.97 31.93 2.38 5066239
2.99 31.93 2.38 5066239
2.36 31.93 2.4 5066239
2.48 31.93 2.4 5066239
2.78 31.93 2.4 5066239
2.96 31.93 2.4 5066239
1.13 31.93 1.35 16216575
1.13 31.93 1.46 16216575
1.18 31.93 2.39 16216575
1.37 31.93 2.36 16216575
1.16 31.93 2.41 16216575
1.1 31.93 2.61 16216575
1.11 31.93 2.82 16216575
1.11 31.93 3.0 18313728
1.1 31.93 3.21 18313728
3.36 31.93 2.97 18313984
3.36 31.93 3.17 18313984
3.37 31.93 3.26 18313984
3.46 31.93 3.22 18313984
3.46 31.93 1.21 16216831
3.4 31.93 1.45 16216831
3.48 31.93 2.07 16216831
3.44 31.93 2.28 16216831
3.17 31.93 2.41 16216831
3.38 31.93 2.49 16216831
3.43 31.93 2.4 16216831
3.37 31.93 2.79 16216831
1.58 31.93 2.38 5066239
1.77 31.93 2.38 5066239
1.97 31.93 2.37 5066239
2.17 31.93 2.38 5066239
2.38 31.93 2.38 5066239
2.56 31.93 2.38 5066239
2.77 31.93 2.38 5066239
2.97 31.93 2.38 5066239
2.99 31.93 2.37 5066239
2.15 31.93 2.4 5066239
2.36 31.93 2.4 5066239
2.58 31.93 2.4 5066239
2.78 31.93 2.4 5066239
2.95 31.93 2.41 5066239
1.18 31.93 2.39 16216575
1.35 31.93 2.38 16216575
1.16 31.93 2.41 16216575
1.1 31.93 2.64 16216575
1.1 31.93 2.81 16216575
1.11 31.93 3.0 18313728
1.09 31.93 3.2 18313728
3.35 31.93 2.98 18313984
3.35 31.93 3.18 18313984
3.45 31.93 3.19 18313984
3.37 31.93 3.27 18313984
3.46 31.93 3.26 18313984
3.45 31.93 1.15 16216831
3.38 31.93 1.35 16216831
3.44 31.93 1.25 16216831
3.47 31.93 2.11 16216831
3.26 31.93 2.39 16216831
3.07 31.93 2.4 16216831
3.36 31.93 2.58 16216831
3.36 31.93 2.77 16216831
1.56 31.93 2.39 5066239
1.78 31.93 2.39 5066239
1.98 31.93 2.38 5066239
2.17 31.93 2.38 5066239
2.36 31.93 2.39 5066239
2.56 31.93 2.39 5066239
2.77 31.93 2.39 5066239
2.97 31.93 2.38 5066239
2.99 31.93 2.39 5066239
2.36 31.93 2.4 5066239
2.61 31.93 2.4 5066239
1.13 31.93 1.35 16216575
1.13 31.93 1.45 16216575
1.03 31.93 2.39 16216575
1.38 31.93 2.38 16216575
1.18 31.93 2.4 16216575
1.1 31.93 2.61 16216575
1.11 31.93 2.81 16216575
1.11 31.93 3.0 18313728
1.1 31.93 3.21 18313728
3.36 31.93 2.98 18313984
3.36 31.93 3.17 18313984
3.39 31.93 3.27 18313984
3.46 31.93 3.21 18313984
3.46 31.93 1.18 16216831
3.39 31.93 1.38 16216831
3.44 31.93 1.27 16216831
3.47 31.93 2.13 16216831
3.44 31.93 2.25 16216831
3.18 31.93 2.4 16216831
3.39 31.93 2.46 16216831
3.43 31.93 2.4 16216831
3.38 31.93 2.63 16216831
1.58 31.93 2.38 5066239
1.78 31.93 2.39 5066239
1.98 31.93 2.38 5066239
2.18 31.93 2.39 5066239
2.38 31.93 2.38 5066239
2.59 31.93 2.39 5066239
2.79 31.93 2.38 5066239
2.97 31.93 2.38 5066239
3.0 31.93 2.39 5066239
1.87 31.93 2.4 5066239
2.18 31.93 2.4 5066239
2.38 31.93 2.4 5066239
2.57 31.93 2.4 5066239
2.77 31.93 2.4 5066239
2.99 31.93 2.4 5066239
1.13 31.93 1.35 16216575
1.13 31.93 1.46 16216575
1.18 31.93 2.39 16216575
1.38 31.93 2.38 16216575
1.16 31.93 2.41 16216575
1.11 31.93 2.62 16216575
1.11 31.93 2.82 16216575
1.11 31.93 3.01 18313728
1.1 31.93 3.21 18313728
3.37 31.93 3.16 18313984
3.39 31.93 3.27 18313984
3.46 31.93 3.23 18313984
3.46 31.93 1.21 16216831
3.4 31.93 1.43 16216831
3.48 31.93 2.08 16216831
3.45 31.93 2.3 16216831
3.39 31.93 2.46 16216831
3.43 31.93 2.4 16216831
3.38 31.93 2.64 16216831
3.38 31.93 2.81 16216831
1.59 31.93 2.38 5066239
1.77 31.93 2.38 5066239
1.98 31.93 2.38 5066239
2.18 31.93 2.38 5066239
2.39 31.93 2.39 5066239
2.58 31.93 2.39 5066239
2.79 31.93 2.38 5066239
2.99 31.93 2.38 5066239
1.69 31.93 2.4 5066239
1.98 31.93 2.4 5066239
2.12 31.93 2.4 5066239
2.38 31.93 2.4 5066239
2.57 31.93 2.41 5066239
2.77 31.93 2.4 5066239
2.99 31.93 2.4 5066239
3.02 31.93 2.4 5066239
1.12 31.93 1.39 16216575
1.03 31.93 2.39 16216575
1.36 31.93 2.39 16216575
1.17 31.93 2.42 16216575
1.18 31.93 2.4 16216575
1.09 31.93 2.6 16216575
1.1 31.93 2.81 16216575
1.1 31.93 3.0 18313728
1.1 31.93 3.21 18313728
3.36 31.93 2.97 18313984
3.36 31.93 3.17 18313984
3.37 31.93 3.28 18313984
3.46 31.93 3.26 18313984
3.45 31.93 1.16 16216831
3.44 31.93 1.26 16216831
3.47 31.93 2.13 16216831
3.43 31.93 2.21 16216831
3.17 31.93 2.41 16216831
3.37 31.93 2.55 16216831
3.43 31.93 2.4 16216831
3.37 31.93 2.73 16216831
3.38 31.93 2.62 16216831
1.56 31.93 2.39 5066239
1.75 31.93 2.39 5066239
1.95 31.93 2.38 5066239
2.15 31.93 2.39 5066239
2.36 31.93 2.39 5066239
2.49 31.93 2.39 5066239
2.77 31.93 2.39 5066239
2.95 31.93 2.38 5066239
2.99 31.93 2.39 5066239
1.7 31.93 2.4 5066239
1.93 31.93 2.4 5066239
2.13 31.93 2.4 5066239
2.32 31.93 2.4 5066239
2.57 31.93 2.4 5066239
2.75 31.93 2.4 5066239
2.8 31.93 2.4 5066239
1.13 31.93 1.35 16216575
1.13 31.93 1.44 16216575
1.03 31.93 2.39 16216575
1.39 31.93 2.38 16216575
1.18 31.93 2.4 16216575
1.1 31.93 2.61 16216575
1.1 31.93 2.81 16216575
1.11 31.93 3.01 18313728
1.1 31.93 3.21 18313728
3.36 31.93 2.97 18313984
3.36 31.93 3.17 18313984
3.39 31.93 3.28 18313984
3.46 31.93 3.22 18313984
3.47 31.93 2.14 16216831
3.43 31.93 2.24 16216831
3.17 31.93 2.41 16216831
3.39 31.93 2.46 16216831
3.43 31.93 2.41 16216831
3.38 31.93 2.63 16216831
1.59 31.93 2.39 5066239
1.78 31.93 2.39 5066239
1.98 31.93 2.38 5066239
2.18 31.93 2.39 5066239
2.39 31.93 2.39 5066239
2.59 31.93 2.39 5066239
2.77 31.93 2.39 5066239
2.99 31.93 2.39 5066239
1.53 31.93 2.4 5066239
1.77 31.93 2.4 5066239
1.98 31.93 2.4 5066239
2.18 31.93 2.4 5066239
2.32 31.93 2.4 5066239
2.57 31.93 2.4 5066239
2.75 31.93 2.4 5066239
2.91 31.93 2.4 5066239
1.13 31.93 1.35 16216575
1.13 31.93 1.44 16216575
1.03 31.93 2.38 16216575
1.39 31.93 2.38 16216575
1.18 31.93 2.4 16216575
1.11 31.93 2.61 16216575
1.1 31.93 2.81 16216575
1.11 31.93 3.0 18313728
1.09 31.93 3.2 18313728
3.36 31.93 3.17 18313984
3.39 31.93 3.28 18313984
3.46 31.93 3.23 18313984
3.47 31.93 1.54 16216831
3.48 31.93 2.07 16216831
3.44 31.93 2.28 16216831
3.16 31.93 2.42 16216831
3.39 31.93 2.46 16216831
3.44 31.93 2.41 16216831
3.39 31.93 2.65 16216831
3.36 31.93 2.97 16216831
1.59 31.93 2.38 5066239
1.78 31.93 2.38 5066239
1.98 31.93 2.38 5066239
2.18 31.93 2.38 5066239
2.36 31.93 2.39 5066239
2.59 31.93 2.39 5066239
2.73 31.93 2.39 5066239
2.99 31.93 2.39 5066239
1.56 31.93 2.4 5066239
1.79 31.93 2.4 5066239
1.98 31.93 2.4 5066239
2.18 31.93 2.4 5066239
2.39 31.93 2.4 5066239
2.57 31.93 2.4 5066239
2.78 31.93 2.4 5066239
2.98 31.93 2.41 5066239
1.03 31.93 1.18 16216575
1.05 31.93 1.32 16216575
1.01 31.93 2.38 16216575
1.36 31.93 2.39 16216575
1.17 31.93 2.42 16216575
1.18 31.93 2.4 16216575
1.1 31.93 2.6 16216575
1.1 31.93 2.81 16216575
1.1 31.93 3.0 18313728
1.1 31.93 3.21 18313728
3.36 31.93 2.98 18313984
3.34 31.93 3.18 18313984
3.35 31.93 3.26 18313984
3.46 31.93 3.26 18313984
3.45 31.93 1.16 16216831
3.44 31.93 1.26 16216831
3.36 31.93 2.58 16216831
3.46 31.93 2.42 16216831
3.36 31.93 2.77 16216831
3.44 31.93 2.6 16216831
1.49 31.93 2.39 5066239
1.72 31.93 2.39 5066239
1.87 31.93 2.39 5066239
2.13 31.93 2.39 5066239
2.34 31.93 2.39 5066239
2.49 31.93 2.39 5066239
2.93 31.93 2.39 5066239
2.98 31.93 2.39 5066239
1.57 31.93 2.4 5066239
1.76 31.93 2.4 5066239
1.96 31.93 2.4 5066239
2.16 31.93 2.4 5066239
2.37 31.93 2.4 5066239
2.57 31.93 2.41 5066239
2.75 31.93 2.4 5066239
2.96 31.93 2.4 5066239
3.0 31.93 2.41 5066239
1.04 31.93 2.06 16216575
1.18 31.93 2.39 16216575
1.35 31.93 2.39 16216575
1.16 31.93 2.41 16216575
1.1 31.93 2.6 16216575
1.1 31.93 2.81 16216575
1.11 31.93 3.0 18313728
1.1 31.93 3.21 18313728
3.35 31.93 3.18 18313984
3.45 31.93 3.05 18313984
3.38 31.93 3.29 18313984
3.45 31.93 3.2 18313984
3.45 31.93 1.17 16216831
3.44 31.93 1.25 16216831
3.47 31.93 2.12 16216831
3.44 31.93 2.35 16216831
3.38 31.93 2.48 16216831
3.43 31.93 2.41 16216831
3.36 31.93 2.77 16216831
3.36 31.93 2.97 16216831
1.56 31.93 2.38 5066239
1.78 31.93 2.39 5066239
1.96 31.93 2.39 5066239
2.15 31.93 2.39 5066239
2.24 31.93 2.39 5066239
2.49 31.93 2.39 5066239
2.98 31.93 2.39 5066239
1.5 31.93 2.4 5066239
1.73 31.93 2.4 5066239
1.98 31.93 2.4 5066239
2.11 31.93 2.4 5066239
2.37 31.93 2.4 5066239
2.57 31.93 2.4 5066239
2.78 31.93 2.4 5066239
2.96 31.93 2.4 5066239
3.0 31.93 2.4 5066239
1.13 31.93 1.35 16216575
1.13 31.93 1.44 16216575
1.04 31.93 2.27 16216575
1.39 31.93 2.39 16216575
1.18 31.93 2.43 16216575
1.2 31.93 2.41 16216575
1.11 31.93 2.62 16216575
1.12 31.93 2.82 16216575
1.11 31.93 3.01 18313728
1.1 31.93 3.21 18313728
3.37 31.93 3.16 18313984
3.39 31.93 3.29 18313984
3.47 31.93 3.25 18313984
3.59 31.93 0.52 16216831
3.54 31.93 0.6 16216831
3.51 31.93 0.82 16216831
3.47 31.93 1.24 16216831
3.4 31.93 1.43 16216831
3.48 31.93 2.07 16216831
3.45 31.93 2.32 16216831
3.39 31.93 2.46 16216831
3.44 31.93 2.42 16216831
3.39 31.93 2.65 16216831
3.37 31.93 2.96 16216831
1.59 31.93 2.39 5066239
1.78 31.93 2.39 5066239
1.99 31.93 2.39 5066239
2.18 31.93 2.39 5066239
2.36 31.93 2.39 5066239
2.49 31.93 2.39 5066239
2.77 31.93 2.39 5066239
2.99 31.93 2.39 5066239
1.5 31.93 2.4 5066239
1.63 31.93 2.4 5066239
1.97 31.93 2.41 5066239
2.16 31.93 2.4 5066239
2.39 31.93 2.4 5066239
2.59 31.93 2.4 5066239
2.75 31.93 2.4 5066239
2.98 31.93 2.4 5066239
3.05 31.93 2.47 5066239
1.14 31.93 0.69 16216575
1.11 31.93 1.33 16216575
1.12 31.93 1.4 16216575
1.05 31.93 2.17 16216575
1.03 31.93 2.39 16216575
1.19 31.93 2.4 16216575
1.37 31.93 2.4 16216575
1.11 31.93 2.61 16216575
1.12 31.93 2.83 16216575
1.11 31.93 3.01 18313728
1.1 31.93 3.21 18313728
3.36 31.93 3.17 18313984
3.37 31.93 3.28 18313984
3.46 31.93 3.23 18313984
3.52 31.93 0.87 16216831
3.46 31.93 1.19 16216831
3.39 31.93 1.37 16216831
3.44 31.93 1.26 16216831
3.47 31.93 2.12 16216831
3.45 31.93 2.39 16216831
3.18 31.93 2.4 16216831
3.39 31.93 2.46 16216831
3.43 31.93 2.41 16216831
3.38 31.93 2.64 16216831
3.36 31.93 2.97 16216831
1.59 31.93 2.39 5066239
3.0 31.93 2.39 5066239
1.57 31.93 2.4 5066239
1.76 31.93 2.41 5066239
1.99 31.93 2.4 5066239
2.19 31.93 2.41 5066239
2.37 31.93 2.41 5066239
2.59 31.93 2.4 5066239
2.78 31.93 2.41 5066239
2.98 31.93 2.4 5066239
0.97 31.93 0.59 16216575
1.02 31.93 0.79 16216575
1.1 31.93 0.87 16216575
1.13 31.93 1.35 16216575
1.13 31.93 1.44 16216575
1.04 31.93 2.36 16216575
1.25 31.93 2.39 16216575
1.36 31.93 2.39 16216575
1.14 31.93 2.47 16216575
1.33 31.93 2.4 16216575
1.13 31.93 2.63 16216575
1.13 31.93 2.8 16216575
1.13 31.93 3.02 18313728
1.12 31.93 3.22 18313728
3.38 31.93 3.16 18313984
3.47 31.93 3.26 18313984
3.52 31.93 0.87 16216831
3.48 31.93 2.05 16216831
3.45 31.93 2.39 16216831
3.35 31.93 2.47 16216831
3.44 31.93 2.42 16216831
3.38 31.93 2.78 16216831
3.38 31.93 2.96 16216831
1.87 31.93 2.39 5066239
2.02 31.93 2.39 5066239
2.18 31.93 2.39 5066239
2.98 31.93 2.39 5066239
1.54 31.93 2.4 5066239
1.73 31.93 2.4 5066239
1.94 31.93 2.4 5066239
2.14 31.93 2.4 5066239
2.35 31.93 2.4 5066239
2.54 31.93 2.4 5066239
2.75 31.93 2.4 5066239
2.93 31.93 2.4 5066239
3.02 31.93 2.4 5066239
1.08 31.93 0.93 16216575
1.08 31.93 1.09 16216575
1.13 31.93 1.35 16216575
1.13 31.93 1.45 16216575
1.04 31.93 2.37 16216575
1.36 31.93 2.39 16216575
1.2 31.93 2.41 16216575
1.4 31.93 2.4 16216575
1.13 31.93 2.63 16216575
1.13 31.93 2.8 16216575
1.13 31.93 3.02 18313728
1.12 31.93 3.22 18313728
3.38 31.93 2.99 18313984
3.37 31.93 3.19 18313984
3.4 31.93 3.3 18313984
3.48 31.93 3.27 18313984
3.55 31.93 0.88 16216831
3.49 31.93 2.09 16216831
3.46 31.93 2.35 16216831
3.4 31.93 2.48 16216831
3.45 31.93 2.4 16216831
3.4 31.93 2.62 16216831
1.87 31.93 2.39 5066239
2.13 31.93 2.39 5066239
3.0 31.93 2.39 5066239
1.57 31.93 2.4 5066239
1.79 31.93 2.41 5066239
1.99 31.93 2.4 5066239
2.19 31.93 2.41 5066239
2.39 31.93 2.4 5066239
2.59 31.93 2.4 5066239
2.8 31.93 2.4 5066239
2.98 31.93 2.4 5066239
3.02 31.93 2.41 5066239
1.09 31.93 0.92 16216575
1.05 31.93 2.17 16216575
1.03 31.93 2.39 16216575
1.18 31.93 2.43 16216575
1.38 31.93 2.41 16216575
1.11 31.93 2.61 16216575
1.11 31.93 2.82 16216575
1.11 31.93 3.01 18313728
1.11 31.93 3.21 18313728
3.36 31.93 3.17 18313984
3.38 31.93 3.3 18313984
3.46 31.93 3.22 18313984
3.51 31.93 0.85 16216831
3.46 31.93 1.19 16216831
3.39 31.93 1.37 16216831
3.44 31.93 1.26 16216831
3.47 31.93 2.13 16216831
3.43 31.93 2.23 16216831
3.37 31.93 2.57 16216831
3.37 31.93 2.79 16216831
3.36 31.93 2.97 16216831
1.58 31.93 2.41 5066239
1.77 31.93 2.42 5066239
1.97 31.93 2.41 5066239
2.19 31.93 2.41 5066239
2.38 31.93 2.41 5066239
2.58 31.93 2.41 5066239
2.78 31.93 2.41 5066239
2.98 31.93 2.4 5066239
3.0 31.93 2.41 5066239
1.04 29.91 0.88 16216575
1.1 29.91 1.35 16216575
1.12 29.91 1.5 16216575
1.03 29.91 2.38 16216575
1.18 29.91 2.43 16216575
1.37 29.91 2.4 16216575
1.1 29.91 2.61 16216575
1.11 29.91 2.82 16216575
1.12 29.91 3.02 18313728
1.1 29.91 3.21 18313728
3.36 29.91 3.17 18313984
3.38 29.91 3.3 18313984
3.46 29.91 3.27 18313984
3.52 29.91 0.87 16216831
3.46 29.91 1.19 16216831
3.39 29.91 1.39 16216831
3.44 29.91 1.26 16216831
3.47 29.91 2.13 16216831
3.43 29.91 2.23 16216831
3.39 29.91 2.52 16216831
3.44 29.91 2.43 16216831
3.39 29.91 2.65 16216831
3.36 29.91 2.97 16216831
1.58 29.91 2.42 5066239
1.77 29.91 2.42 5066239
1.97 29.91 2.41 5066239
2.19 29.91 2.41 5066239
2.38 29.91 2.42 5066239
2.58 29.91 2.41 5066239
2.78 29.91 2.41 5066239
