# File_name:transit_20220730-084502_l1_c501_id3.pcd
# Mode:normal
# Main_id:3
# Lane1 trs_id:3 lane_min_x:300 lane_max_x:3900
# Time_begin:2022-07-30T08:45:02 Occupancy:14220ms
# Height:4160mm Width:2574mm Length:19550mm
# Speed:0km/h Direction:A
# Axles:0
# Class:Articulated truck Class_id:7 Class_cmk:501
# Offset X:2124mm Y:14704mm Z:3623mm
VERSION .7
FIELDS x y z rgb
SIZE 4 4 4 4
TYPE F F F F
COUNT 1 1 1 1
WIDTH 1642
HEIGHT 1
VIEWPOINT 0 0 1 0 0 0 0
POINTS 1642
DATA ascii
2.74 24.29 2.51 18313984
1.4 24.05 3.28 18313728
1.2 24.05 3.41 18313728
1.43 24.05 3.41 18313728
1.74 24.05 3.35 5066239
2.09 24.05 3.35 5066239
2.48 24.05 3.35 5066239
2.1 24.05 3.4 5066239
2.29 24.05 3.4 5066239
2.5 24.05 3.4 5066239
2.75 24.05 3.4 18313984
2.7 24.05 3.21 18313984
2.88 24.05 1.83 16216831
2.85 24.05 1.83 16216831
2.72 24.05 2.0 16216831
2.87 24.05 2.0 16216831
2.79 24.05 2.64 16216831
2.85 24.05 2.64 16216831
2.79 24.05 3.4 16216831
0.9 23.72 1.39 16216575
0.9 23.72 1.52 16216575
0.9 23.72 1.75 16216575
0.99 23.72 1.88 16216575
1.07 23.72 1.93 16216575
0.91 23.72 2.75 16216575
0.93 23.72 2.97 16216575
0.97 23.72 3.18 16216575
0.85 23.72 3.36 18313728
0.95 23.72 3.39 18313728
1.19 23.72 3.39 5066239
1.39 23.72 3.35 5066239
1.58 23.72 3.34 5066239
1.78 23.72 3.32 5066239
1.96 23.72 3.31 5066239
2.17 23.72 3.31 5066239
2.27 23.72 3.37 5066239
1.18 23.72 3.46 5066239
1.39 23.72 3.48 5066239
1.58 23.72 3.5 5066239
1.76 23.72 3.52 5066239
1.99 23.72 3.53 5066239
2.19 23.72 3.53 5066239
2.39 23.72 3.53 5066239
2.58 23.72 3.52 5066239
2.79 23.72 3.4 18313984
2.75 23.72 3.29 18313984
2.98 23.72 0.65 16216831
2.96 23.72 0.65 16216831
2.94 23.72 0.84 16216831
2.93 23.72 1.59 16216831
2.94 23.72 1.7 16216831
2.92 23.72 1.81 16216831
2.89 23.72 2.04 16216831
2.85 23.72 2.24 16216831
2.84 23.72 2.45 16216831
2.85 23.72 2.6 16216831
2.84 23.72 2.8 16216831
2.82 23.72 3.02 16216831
2.81 23.72 3.4 16216831
0.82 23.41 2.18 16216575
0.77 23.41 2.29 16216575
0.62 23.41 2.59 16216575
0.68 23.41 2.54 16216575
0.82 23.41 3.08 16216575
0.94 23.41 3.38 5066239
1.04 23.41 3.55 5066239
1.24 23.41 3.57 5066239
1.42 23.41 3.59 5066239
1.51 23.41 3.59 5066239
1.43 23.41 3.6 5066239
1.64 23.41 3.61 5066239
1.83 23.41 3.61 5066239
2.03 23.41 3.61 5066239
2.23 23.41 3.6 5066239
2.41 23.41 3.6 5066239
2.62 23.41 3.59 18313984
2.83 23.41 3.57 18313984
2.85 23.41 3.57 18313984
2.58 23.41 3.6 18313984
2.89 23.41 3.6 18313984
0.89 23.41 2.35 5066239
0.89 23.41 2.35 5066239
0.91 23.41 2.56 5066239
0.89 23.41 2.98 5066239
0.9 23.41 3.59 5066239
1.01 23.09 1.9 16216575
1.03 23.09 1.91 16216575
0.91 23.09 2.01 16216575
0.87 23.09 2.88 16216575
0.89 23.09 3.17 16216575
0.92 23.09 3.39 16216575
1.0 23.09 3.58 18313728
1.02 23.09 3.59 18313728
1.2 23.09 3.64 5066239
1.41 23.09 3.66 5066239
1.58 23.09 3.79 5066239
1.6 23.09 3.84 5066239
1.81 23.09 3.93 5066239
2.01 23.09 3.93 5066239
2.17 23.09 3.93 5066239
2.81 23.09 3.66 18313984
2.93 23.09 3.66 18313984
0.85 22.77 1.98 16216575
1.0 22.77 1.93 16216575
0.96 22.77 2.0 16216575
0.88 22.77 3.16 16216575
0.9 22.77 3.31 16216575
0.96 22.77 3.49 16216575
1.17 22.77 3.52 16216575
1.17 22.77 3.65 18313728
1.77 22.77 3.57 5066239
1.98 22.77 3.57 5066239
2.16 22.77 3.57 5066239
2.38 22.77 3.57 5066239
2.57 22.77 3.58 5066239
1.38 22.77 3.68 5066239
1.57 22.77 3.79 5066239
1.58 22.77 3.86 5066239
1.78 22.77 3.95 5066239
1.98 22.77 3.95 5066239
2.18 22.77 3.94 5066239
2.24 22.77 3.94 5066239
2.75 22.77 3.68 18313984
2.94 22.77 3.67 18313984
3.03 22.77 0.68 16216831
2.96 22.77 0.68 16216831
3.02 22.77 0.68 16216831
3.12 22.77 1.87 16216831
2.97 22.77 2.0 16216831
3.02 22.77 2.0 16216831
3.03 22.77 2.35 16216831
2.98 22.77 2.42 16216831
3.01 22.77 2.44 16216831
2.85 22.77 2.63 16216831
2.84 22.77 2.81 16216831
2.84 22.77 3.02 16216831
2.82 22.77 3.23 16216831
2.78 22.77 3.4 16216831
1.35 22.77 3.53 5066239
1.55 22.77 3.68 5066239
0.89 22.46 1.31 16216575
0.92 22.46 1.43 16216575
1.07 22.46 1.88 16216575
1.12 22.46 1.88 16216575
0.92 22.46 2.79 16216575
0.94 22.46 2.98 16216575
1.01 22.46 3.18 16216575
1.01 22.46 3.32 18313728
1.16 22.46 3.38 18313728
1.06 22.46 3.38 18313728
1.46 22.46 3.31 5066239
1.67 22.46 3.31 5066239
1.76 22.46 3.31 5066239
2.08 22.46 3.38 5066239
2.1 22.46 3.38 5066239
1.25 22.46 3.43 5066239
1.45 22.46 3.47 5066239
1.64 22.46 3.47 5066239
2.06 22.46 3.5 5066239
2.27 22.46 3.5 5066239
2.48 22.46 3.5 5066239
2.48 22.46 3.6 5066239
2.51 22.46 3.6 5066239
2.67 22.46 3.55 18313984
2.74 22.46 3.42 18313984
2.86 22.46 1.27 16216831
2.9 22.46 1.27 16216831
2.88 22.46 1.41 16216831
2.86 22.46 1.62 16216831
2.83 22.46 1.85 16216831
2.86 22.46 2.45 16216831
2.78 22.46 2.61 16216831
2.78 22.46 2.8 16216831
2.68 22.46 3.0 16216831
2.72 22.46 3.09 16216831
2.65 22.46 3.55 16216831
0.89 22.14 1.31 16216575
0.92 22.14 1.43 16216575
1.07 22.14 1.88 16216575
1.12 22.14 1.88 16216575
0.92 22.14 2.79 16216575
0.94 22.14 2.98 16216575
1.01 22.14 3.18 16216575
1.01 22.14 3.32 18313728
1.16 22.14 3.38 18313728
1.06 22.14 3.38 18313728
1.46 22.14 3.31 5066239
1.67 22.14 3.31 5066239
1.76 22.14 3.31 5066239
2.08 22.14 3.38 5066239
2.1 22.14 3.38 5066239
1.25 22.14 3.43 5066239
1.45 22.14 3.47 5066239
1.64 22.14 3.47 5066239
2.06 22.14 3.5 5066239
2.27 22.14 3.5 5066239
2.48 22.14 3.5 5066239
2.48 22.14 3.6 5066239
2.51 22.14 3.6 5066239
2.67 22.14 3.55 18313984
2.74 22.14 3.42 18313984
2.86 22.14 1.27 16216831
2.9 22.14 1.27 16216831
2.88 22.14 1.41 16216831
2.86 22.14 1.62 16216831
2.83 22.14 1.85 16216831
2.86 22.14 2.45 16216831
2.78 22.14 2.61 16216831
2.78 22.14 2.8 16216831
2.68 22.14 3.0 16216831
2.72 22.14 3.09 16216831
2.65 22.14 3.55 16216831
0.89 21.88 1.31 16216575
0.92 21.88 1.43 16216575
1.07 21.88 1.88 16216575
1.12 21.88 1.88 16216575
0.92 21.88 2.79 16216575
0.94 21.88 2.98 16216575
1.01 21.88 3.18 16216575
1.01 21.88 3.32 18313728
1.16 21.88 3.38 18313728
1.06 21.88 3.38 18313728
1.46 21.88 3.31 5066239
1.67 21.88 3.31 5066239
1.76 21.88 3.31 5066239
2.08 21.88 3.38 5066239
2.1 21.88 3.38 5066239
1.25 21.88 3.43 5066239
1.45 21.88 3.47 5066239
1.64 21.88 3.47 5066239
2.06 21.88 3.5 5066239
2.27 21.88 3.5 5066239
2.48 21.88 3.5 5066239
2.48 21.88 3.6 5066239
2.51 21.88 3.6 5066239
2.67 21.88 3.55 18313984
2.74 21.88 3.42 18313984
2.86 21.88 1.27 16216831
2.9 21.88 1.27 16216831
2.88 21.88 1.41 16216831
2.86 21.88 1.62 16216831
2.83 21.88 1.85 16216831
2.86 21.88 2.45 16216831
2.78 21.88 2.61 16216831
2.78 21.88 2.8 16216831
2.68 21.88 3.0 16216831
2.72 21.88 3.09 16216831
2.65 21.88 3.55 16216831
0.85 21.58 1.96 16216575
0.96 21.58 2.0 16216575
0.87 21.58 2.92 16216575
0.89 21.58 3.18 16216575
0.91 21.58 3.3 16216575
0.96 21.58 3.55 16216575
1.0 21.58 3.59 16216575
0.7 21.58 4.0 18313728
0.96 21.58 4.0 18313728
1.36 21.58 3.68 5066239
1.56 21.58 3.68 5066239
1.57 21.58 3.68 5066239
2.75 21.58 3.79 5066239
1.75 21.58 3.94 5066239
1.96 21.58 3.95 5066239
2.14 21.58 3.95 5066239
2.25 21.58 3.95 5066239
1.15 21.58 4.01 5066239
1.32 21.58 4.01 5066239
1.55 21.58 4.01 5066239
1.75 21.58 4.02 5066239
1.96 21.58 4.03 5066239
2.15 21.58 4.03 5066239
2.36 21.58 4.03 5066239
2.55 21.58 4.03 5066239
2.95 21.58 3.8 18313984
3.16 21.58 3.8 18313984
3.17 21.58 3.93 18313984
2.76 21.58 4.03 18313984
2.96 21.58 4.03 18313984
3.15 21.58 4.0 18313984
3.2 21.58 2.66 16216831
3.16 21.58 2.66 16216831
3.16 21.58 2.82 16216831
3.14 21.58 3.02 16216831
3.18 21.58 3.35 16216831
3.16 21.58 3.4 16216831
3.18 21.58 3.59 16216831
3.16 21.58 3.63 16216831
3.17 21.58 3.63 16216831
1.02 21.58 3.63 5066239
1.16 21.58 3.8 5066239
0.85 21.26 1.96 16216575
0.96 21.26 2.0 16216575
0.87 21.26 2.92 16216575
0.89 21.26 3.18 16216575
0.91 21.26 3.3 16216575
0.96 21.26 3.55 16216575
1.0 21.26 3.59 16216575
0.74 21.26 4.01 18313728
0.94 21.26 4.01 18313728
1.36 21.26 3.68 5066239
1.56 21.26 3.68 5066239
1.57 21.26 3.68 5066239
2.75 21.26 3.79 5066239
1.75 21.26 3.94 5066239
1.96 21.26 3.95 5066239
2.14 21.26 3.95 5066239
2.25 21.26 3.95 5066239
1.13 21.26 4.01 5066239
1.34 21.26 4.02 5066239
1.56 21.26 4.02 5066239
1.76 21.26 4.03 5066239
1.96 21.26 4.03 5066239
2.15 21.26 4.03 5066239
2.36 21.26 4.04 5066239
2.55 21.26 4.04 5066239
2.76 21.26 4.04 5066239
2.95 21.26 3.81 18313984
3.16 21.26 3.81 18313984
3.17 21.26 3.81 18313984
2.95 21.26 4.0 18313984
3.15 21.26 4.0 18313984
3.22 21.26 2.55 16216831
3.17 21.26 2.55 16216831
3.16 21.26 2.66 16216831
3.17 21.26 2.73 16216831
3.2 21.26 3.15 16216831
3.16 21.26 3.23 16216831
3.19 21.26 3.38 16216831
3.16 21.26 3.44 16216831
3.17 21.26 3.44 16216831
3.17 21.26 3.56 16216831
1.02 21.26 3.63 5066239
1.16 21.26 3.81 5066239
0.85 20.94 1.96 16216575
0.96 20.94 2.0 16216575
0.87 20.94 2.92 16216575
0.89 20.94 3.18 16216575
0.91 20.94 3.3 16216575
0.96 20.94 3.55 16216575
1.0 20.94 3.59 16216575
0.72 20.94 4.01 18313728
0.96 20.94 4.0 18313728
1.36 20.94 3.68 5066239
1.56 20.94 3.68 5066239
1.57 20.94 3.68 5066239
2.75 20.94 3.79 5066239
1.75 20.94 3.94 5066239
1.96 20.94 3.95 5066239
2.14 20.94 3.95 5066239
2.25 20.94 3.95 5066239
1.15 20.94 4.01 5066239
1.33 20.94 4.01 5066239
1.55 20.94 4.01 5066239
1.75 20.94 4.02 5066239
1.96 20.94 4.03 5066239
2.15 20.94 4.03 5066239
2.35 20.94 4.03 5066239
2.55 20.94 4.04 5066239
2.76 20.94 4.04 5066239
2.95 20.94 3.81 18313984
3.16 20.94 3.81 18313984
3.17 20.94 3.81 18313984
2.96 20.94 4.0 18313984
3.16 20.94 4.0 18313984
3.25 20.94 1.8 16216831
3.22 20.94 1.8 16216831
3.22 20.94 2.35 16216831
3.21 20.94 2.41 16216831
3.19 20.94 2.6 16216831
3.24 20.94 3.16 16216831
3.23 20.94 3.2 16216831
3.16 20.94 3.41 16216831
3.17 20.94 3.52 16216831
3.16 20.94 3.6 16216831
3.17 20.94 3.6 16216831
1.02 20.94 3.6 5066239
1.16 20.94 3.81 5066239
0.69 20.61 1.96 16216575
0.72 20.61 2.13 16216575
0.66 20.61 2.79 16216575
0.69 20.61 2.95 16216575
0.71 20.61 3.59 16216575
0.74 20.61 3.77 18313728
0.74 20.61 3.99 18313728
0.76 20.61 4.0 18313728
0.92 20.61 4.0 18313728
1.16 20.61 4.01 5066239
1.33 20.61 4.01 5066239
1.55 20.61 4.01 5066239
1.74 20.61 4.02 5066239
1.95 20.61 4.02 5066239
2.15 20.61 4.03 5066239
2.35 20.61 4.03 5066239
2.56 20.61 4.03 5066239
2.76 20.61 4.03 5066239
3.17 20.61 3.8 18313984
3.17 20.61 3.8 18313984
2.96 20.61 4.04 18313984
3.16 20.61 4.04 18313984
3.17 20.61 4.0 18313984
3.31 20.61 2.07 16216831
3.3 20.61 2.07 16216831
3.24 20.61 2.2 16216831
3.24 20.61 2.68 16216831
3.23 20.61 2.82 16216831
3.27 20.61 3.21 16216831
3.16 20.61 3.4 16216831
3.22 20.61 3.53 16216831
3.16 20.61 3.8 16216831
0.65 20.28 2.39 16216575
0.66 20.28 2.43 16216575
0.64 20.28 3.12 16216575
0.64 20.28 3.59 16216575
0.72 20.28 3.79 18313728
0.73 20.28 3.98 18313728
0.74 20.28 4.02 18313728
0.94 20.28 4.02 18313728
1.13 20.28 4.02 5066239
1.35 20.28 4.02 5066239
1.54 20.28 4.03 5066239
1.74 20.28 4.03 5066239
1.95 20.28 4.03 5066239
2.14 20.28 4.04 5066239
2.34 20.28 4.04 5066239
2.54 20.28 4.05 5066239
2.75 20.28 4.05 5066239
3.17 20.28 4.05 18313984
2.94 20.28 4.05 18313984
3.15 20.28 4.05 18313984
3.17 20.28 4.0 18313984
3.34 20.28 2.61 16216831
3.32 20.28 2.61 16216831
3.29 20.28 3.08 16216831
3.25 20.28 3.22 16216831
3.29 20.28 3.41 16216831
3.15 20.28 3.61 16216831
3.17 20.28 4.05 16216831
0.6 19.95 2.77 16216575
0.62 19.95 2.81 16216575
0.6 19.95 3.33 16216575
0.59 19.95 3.59 16216575
0.73 19.95 3.76 18313728
0.73 19.95 3.99 18313728
0.75 19.95 4.02 18313728
0.95 19.95 4.02 18313728
1.14 19.95 4.02 5066239
1.35 19.95 4.03 5066239
1.54 19.95 4.03 5066239
1.74 19.95 4.03 5066239
1.95 19.95 4.04 5066239
2.15 19.95 4.04 5066239
2.34 19.95 4.04 5066239
2.54 19.95 4.04 5066239
2.75 19.95 4.04 5066239
3.15 19.95 3.91 18313984
3.17 19.95 3.91 18313984
2.94 19.95 4.03 18313984
3.15 19.95 4.03 18313984
3.16 19.95 4.0 18313984
3.35 19.95 3.08 16216831
3.36 19.95 3.08 16216831
3.33 19.95 3.43 16216831
3.31 19.95 3.91 16216831
0.58 19.69 3.13 16216575
0.58 19.69 3.51 16216575
0.71 19.69 3.79 18313728
0.73 19.69 3.99 18313728
0.71 19.69 4.02 18313728
0.91 19.69 4.03 18313728
1.11 19.69 4.03 5066239
1.32 19.69 4.03 5066239
1.54 19.69 4.03 5066239
1.71 19.69 4.03 5066239
1.94 19.69 4.04 5066239
2.13 19.69 4.05 5066239
2.33 19.69 4.05 5066239
2.54 19.69 4.05 5066239
2.74 19.69 4.05 5066239
3.34 19.69 3.8 18313984
3.18 19.69 3.8 18313984
2.93 19.69 4.06 18313984
3.14 19.69 4.06 18313984
3.15 19.69 4.0 18313984
3.34 19.69 2.77 16216831
3.35 19.69 2.77 16216831
3.34 19.69 3.01 16216831
3.35 19.69 3.09 16216831
3.37 19.69 3.45 16216831
3.35 19.69 3.8 16216831
0.69 19.37 3.78 18313728
0.73 19.37 3.98 18313728
0.71 19.37 4.02 18313728
0.91 19.37 4.03 18313728
1.11 19.37 4.03 5066239
1.33 19.37 4.03 5066239
1.51 19.37 4.03 5066239
1.72 19.37 4.04 5066239
1.93 19.37 4.04 5066239
2.12 19.37 4.04 5066239
2.33 19.37 4.05 5066239
2.53 19.37 4.05 5066239
2.72 19.37 4.05 5066239
3.3 19.37 3.8 18313984
3.32 19.37 3.8 18313984
3.37 19.37 3.84 18313984
2.93 19.37 4.06 18313984
3.13 19.37 4.06 18313984
3.17 19.37 4.01 18313984
3.37 19.37 3.21 16216831
3.37 19.37 3.21 16216831
3.37 19.37 3.45 16216831
3.37 19.37 3.8 16216831
0.53 19.03 3.56 16216575
0.68 19.03 3.78 18313728
0.72 19.03 3.98 18313728
0.73 19.03 3.99 18313728
0.71 19.03 4.03 18313728
0.92 19.03 4.03 18313728
1.12 19.03 4.03 5066239
1.3 19.03 4.04 5066239
1.52 19.03 4.04 5066239
1.7 19.03 4.04 5066239
1.91 19.03 4.05 5066239
2.11 19.03 4.05 5066239
2.32 19.03 4.06 5066239
2.52 19.03 4.06 5066239
2.72 19.03 4.06 5066239
3.32 19.03 3.81 18313984
3.31 19.03 3.81 18313984
2.92 19.03 4.06 18313984
3.11 19.03 4.06 18313984
3.17 19.03 4.0 18313984
3.37 19.03 3.42 16216831
3.37 19.03 3.42 16216831
3.37 19.03 3.81 16216831
0.67 18.7 3.78 18313728
0.71 18.7 3.98 18313728
0.72 18.7 4.03 18313728
0.92 18.7 4.03 18313728
1.12 18.7 4.03 5066239
1.3 18.7 4.04 5066239
1.52 18.7 4.04 5066239
1.7 18.7 4.04 5066239
1.91 18.7 4.05 5066239
2.11 18.7 4.05 5066239
2.32 18.7 4.05 5066239
2.52 18.7 4.06 5066239
2.72 18.7 4.06 5066239
3.32 18.7 3.81 18313984
3.35 18.7 3.81 18313984
2.92 18.7 4.08 18313984
3.12 18.7 4.08 18313984
3.16 18.7 4.08 18313984
3.33 18.7 4.0 18313984
3.36 18.7 3.42 16216831
3.36 18.7 3.42 16216831
3.36 18.7 3.81 16216831
0.66 18.37 3.79 18313728
0.72 18.37 3.99 18313728
0.68 18.37 4.03 18313728
0.88 18.37 4.03 18313728
1.12 18.37 4.03 5066239
1.33 18.37 4.03 5066239
1.52 18.37 4.04 5066239
1.72 18.37 4.04 5066239
1.91 18.37 4.05 5066239
2.11 18.37 4.05 5066239
2.33 18.37 4.06 5066239
2.53 18.37 4.07 5066239
2.73 18.37 4.07 5066239
3.33 18.37 3.81 18313984
3.35 18.37 3.81 18313984
2.92 18.37 4.08 18313984
3.12 18.37 4.08 18313984
3.17 18.37 4.0 18313984
3.36 18.37 3.43 16216831
3.36 18.37 3.43 16216831
3.36 18.37 3.81 16216831
0.66 18.04 3.79 18313728
0.72 18.04 3.99 18313728
0.73 18.04 4.03 18313728
0.93 18.04 4.03 18313728
1.12 18.04 4.04 5066239
1.3 18.04 4.04 5066239
1.52 18.04 4.04 5066239
1.73 18.04 4.04 5066239
1.91 18.04 4.05 5066239
2.11 18.04 4.05 5066239
2.32 18.04 4.06 5066239
2.53 18.04 4.07 5066239
2.72 18.04 4.07 5066239
3.33 18.04 3.81 18313984
3.35 18.04 3.81 18313984
2.93 18.04 4.08 18313984
3.12 18.04 4.08 18313984
3.16 18.04 4.0 18313984
3.36 18.04 4.0 16216831
3.37 18.04 3.81 16216831
0.68 17.7 3.79 18313728
0.72 17.7 3.99 18313728
0.69 17.7 4.04 18313728
0.9 17.7 4.04 18313728
1.08 17.7 4.04 5066239
1.3 17.7 4.04 5066239
1.53 17.7 4.04 5066239
1.73 17.7 4.05 5066239
1.93 17.7 4.06 5066239
2.13 17.7 4.06 5066239
2.33 17.7 4.06 5066239
2.53 17.7 4.07 5066239
2.73 17.7 4.07 5066239
3.33 17.7 3.81 18313984
3.35 17.7 3.81 18313984
2.92 17.7 4.08 18313984
3.13 17.7 4.08 18313984
3.16 17.7 4.0 18313984
3.37 17.7 4.0 16216831
3.37 17.7 3.81 16216831
0.66 17.38 3.79 18313728
0.7 17.38 3.99 18313728
0.72 17.38 4.05 18313728
0.92 17.38 4.05 18313728
1.12 17.38 4.06 5066239
1.3 17.38 4.06 5066239
1.52 17.38 4.06 5066239
1.7 17.38 4.07 5066239
1.92 17.38 4.08 5066239
2.1 17.38 4.08 5066239
2.31 17.38 4.08 5066239
2.51 17.38 4.09 5066239
2.72 17.38 4.09 5066239
3.32 17.38 3.81 18313984
3.35 17.38 3.81 18313984
2.92 17.38 4.1 18313984
3.11 17.38 4.1 18313984
3.16 17.38 4.1 18313984
3.36 17.38 4.0 18313984
3.37 17.38 4.0 16216831
3.37 17.38 3.81 16216831
0.66 17.11 3.79 18313728
0.7 17.11 3.98 18313728
0.72 17.11 4.05 18313728
0.88 17.11 4.05 18313728
1.07 17.11 4.06 5066239
1.3 17.11 4.06 5066239
1.49 17.11 4.06 5066239
1.71 17.11 4.07 5066239
1.9 17.11 4.08 5066239
2.1 17.11 4.08 5066239
2.3 17.11 4.08 5066239
2.52 17.11 4.09 5066239
2.71 17.11 4.09 5066239
3.32 17.11 3.82 18313984
3.35 17.11 3.82 18313984
2.91 17.11 4.1 18313984
3.11 17.11 4.1 18313984
3.15 17.11 4.1 18313984
3.35 17.11 4.0 18313984
3.35 17.11 3.58 16216831
3.36 17.11 3.58 16216831
3.36 17.11 3.82 16216831
0.65 16.78 3.78 18313728
0.69 16.78 3.99 18313728
0.67 16.78 4.06 18313728
0.89 16.78 4.06 18313728
1.1 16.78 4.07 5066239
1.32 16.78 4.07 5066239
1.5 16.78 4.07 5066239
1.72 16.78 4.08 5066239
1.9 16.78 4.08 5066239
2.11 16.78 4.08 5066239
2.3 16.78 4.09 5066239
2.52 16.78 4.1 5066239
2.72 16.78 4.1 5066239
3.31 16.78 3.82 18313984
3.35 16.78 3.82 18313984
2.91 16.78 4.1 18313984
3.12 16.78 4.1 18313984
3.15 16.78 4.03 18313984
3.38 16.78 3.35 16216831
3.35 16.78 3.35 16216831
3.35 16.78 3.4 16216831
3.36 16.78 3.82 16216831
0.64 16.44 3.79 18313728
0.69 16.44 3.99 18313728
0.71 16.44 4.05 18313728
0.92 16.44 4.05 18313728
1.11 16.44 4.05 5066239
1.29 16.44 4.05 5066239
1.52 16.44 4.06 5066239
1.68 16.44 4.06 5066239
1.91 16.44 4.07 5066239
2.12 16.44 4.07 5066239
2.31 16.44 4.08 5066239
2.51 16.44 4.09 5066239
2.71 16.44 4.09 5066239
3.32 16.44 3.82 18313984
3.34 16.44 3.82 18313984
2.91 16.44 4.1 18313984
3.12 16.44 4.1 18313984
3.13 16.44 4.0 18313984
3.36 16.44 3.13 16216831
3.35 16.44 3.13 16216831
3.34 16.44 3.22 16216831
3.34 16.44 3.46 16216831
3.35 16.44 3.82 16216831
0.63 16.11 3.78 18313728
0.68 16.11 3.98 18313728
0.71 16.11 4.04 18313728
0.9 16.11 4.05 18313728
1.11 16.11 4.05 5066239
1.28 16.11 4.05 5066239
1.47 16.11 4.05 5066239
1.68 16.11 4.06 5066239
1.91 16.11 4.06 5066239
2.09 16.11 4.07 5066239
2.3 16.11 4.08 5066239
2.51 16.11 4.09 5066239
2.7 16.11 4.09 5066239
3.31 16.11 3.82 18313984
3.34 16.11 3.82 18313984
2.91 16.11 4.1 18313984
3.11 16.11 4.1 18313984
3.12 16.11 4.0 18313984
3.35 16.11 3.24 16216831
3.35 16.11 3.24 16216831
3.35 16.11 3.47 16216831
3.35 16.11 3.82 16216831
0.61 15.78 3.79 18313728
0.67 15.78 3.99 18313728
0.68 15.78 4.06 18313728
0.89 15.78 4.06 18313728
1.08 15.78 4.06 5066239
1.27 15.78 4.06 5066239
1.49 15.78 4.06 5066239
1.67 15.78 4.07 5066239
1.86 15.78 4.07 5066239
2.09 15.78 4.08 5066239
2.29 15.78 4.08 5066239
2.48 15.78 4.09 5066239
2.69 15.78 4.09 5066239
3.28 15.78 3.83 18313984
3.33 15.78 3.83 18313984
2.89 15.78 4.11 18313984
3.09 15.78 4.11 18313984
3.11 15.78 4.01 18313984
3.35 15.78 3.43 16216831
3.35 15.78 3.43 16216831
3.35 15.78 3.83 16216831
0.59 15.45 3.79 18313728
0.66 15.45 3.97 18313728
0.66 15.45 4.07 18313728
0.87 15.45 4.07 18313728
1.06 15.45 4.07 5066239
1.25 15.45 4.07 5066239
1.48 15.45 4.07 5066239
1.65 15.45 4.07 5066239
1.88 15.45 4.08 5066239
2.08 15.45 4.08 5066239
2.28 15.45 4.09 5066239
2.46 15.45 4.09 5066239
2.67 15.45 4.09 5066239
3.28 15.45 3.82 18313984
3.29 15.45 3.82 18313984
2.88 15.45 4.11 18313984
3.08 15.45 4.11 18313984
3.11 15.45 4.02 18313984
3.23 15.45 1.28 16216831
3.14 15.45 1.28 16216831
3.31 15.45 2.79 16216831
3.28 15.45 2.85 16216831
3.31 15.45 2.96 16216831
3.28 15.45 3.0 16216831
3.32 15.45 3.43 16216831
3.29 15.45 3.82 16216831
0.58 15.13 3.31 16216575
0.56 15.13 3.59 16216575
0.64 15.13 3.77 18313728
0.66 15.13 3.95 18313728
0.71 15.13 4.07 18313728
0.92 15.13 4.07 18313728
1.13 15.13 4.08 5066239
1.31 15.13 4.09 5066239
1.54 15.13 4.09 5066239
1.74 15.13 4.09 5066239
1.93 15.13 4.09 5066239
2.13 15.13 4.1 5066239
2.34 15.13 4.1 5066239
2.54 15.13 4.1 5066239
2.74 15.13 4.1 5066239
3.13 15.13 3.81 18313984
3.12 15.13 3.81 18313984
3.16 15.13 3.81 18313984
2.93 15.13 4.01 18313984
3.09 15.13 4.01 18313984
3.24 15.13 4.01 18313984
3.26 15.13 2.83 16216831
3.25 15.13 2.83 16216831
3.22 15.13 3.02 16216831
3.2 15.13 3.2 16216831
3.23 15.13 3.49 16216831
3.2 15.13 3.81 16216831
0.63 14.85 3.17 16216575
0.63 14.85 3.54 16216575
0.65 14.85 3.78 18313728
0.65 14.85 3.95 18313728
0.74 14.85 4.08 18313728
0.89 14.85 4.08 18313728
1.11 14.85 4.09 5066239
1.33 14.85 4.1 5066239
1.53 14.85 4.1 5066239
1.73 14.85 4.1 5066239
1.94 14.85 4.11 5066239
2.13 14.85 4.11 5066239
2.33 14.85 4.12 5066239
2.53 14.85 4.12 5066239
2.74 14.85 4.11 5066239
3.08 14.85 4.11 18313984
2.94 14.85 4.11 18313984
3.08 14.85 4.01 18313984
3.28 14.85 4.01 18313984
3.19 14.85 2.4 16216831
3.17 14.85 2.4 16216831
3.17 14.85 2.61 16216831
3.14 14.85 2.8 16216831
3.15 14.85 2.87 16216831
3.14 14.85 3.11 16216831
3.15 14.85 3.17 16216831
3.14 14.85 3.26 16216831
3.15 14.85 3.39 16216831
3.13 14.85 3.41 16216831
3.14 14.85 3.67 16216831
3.15 14.85 4.11 16216831
0.67 14.52 3.19 16216575
0.68 14.52 3.33 16216575
0.68 14.52 3.59 16216575
0.68 14.52 3.67 16216575
0.71 14.52 3.83 18313728
0.91 14.52 3.86 18313728
0.56 14.52 4.01 18313728
0.92 14.52 4.01 18313728
1.49 14.52 3.8 5066239
1.1 14.52 3.8 5066239
1.31 14.52 3.8 5066239
1.41 14.52 3.8 5066239
1.72 14.52 3.82 5066239
1.9 14.52 3.83 5066239
2.12 14.52 3.84 5066239
2.31 14.52 3.85 5066239
2.5 14.52 3.86 5066239
2.65 14.52 3.9 5066239
1.12 14.52 4.11 5066239
1.31 14.52 4.12 5066239
1.51 14.52 4.12 5066239
1.72 14.52 4.13 5066239
1.92 14.52 4.13 5066239
2.09 14.52 4.13 5066239
2.31 14.52 4.14 5066239
2.52 14.52 4.14 5066239
2.68 14.52 4.14 5066239
3.02 14.52 4.09 18313984
2.92 14.52 4.09 18313984
3.04 14.52 4.0 18313984
3.22 14.52 4.0 18313984
3.1 14.52 2.28 16216831
3.06 14.52 2.28 16216831
3.06 14.52 2.56 16216831
3.06 14.52 2.61 16216831
3.06 14.52 2.83 16216831
3.05 14.52 3.02 16216831
3.05 14.52 3.22 16216831
3.04 14.52 3.41 16216831
3.03 14.52 4.09 16216831
1.41 14.19 1.38 16216575
1.49 14.19 1.39 16216575
1.34 14.19 1.41 16216575
1.48 14.19 1.59 16216575
1.52 14.19 1.7 16216575
1.56 14.19 1.99 16216575
2.28 14.19 3.78 5066239
2.4 14.19 3.98 5066239
2.41 14.19 4.02 5066239
2.6 14.19 4.13 5066239
2.8 14.19 4.13 5066239
3.0 14.19 4.15 18313984
3.18 14.19 4.15 18313984
3.27 14.19 4.15 18313984
2.04 14.19 0.44 5066239
1.79 14.19 0.44 5066239
2.01 14.19 0.44 5066239
2.02 14.19 0.45 5066239
1.58 14.19 2.17 5066239
1.61 14.19 2.26 5066239
1.65 14.19 2.39 5066239
1.72 14.19 2.58 5066239
1.81 14.19 2.79 5066239
1.89 14.19 2.99 5066239
1.99 14.19 3.19 5066239
2.01 14.19 3.28 5066239
2.08 14.19 3.39 5066239
2.2 14.19 3.59 5066239
2.21 14.19 4.15 5066239
1.7 13.85 0.33 16216575
1.88 13.85 0.49 5066239
2.27 13.85 0.45 16216831
2.3 13.85 0.41 16216831
2.08 13.85 0.35 5066239
2.12 13.85 0.35 5066239
2.09 13.85 0.49 5066239
0.82 13.52 4.03 18313728
1.0 13.52 4.03 18313728
1.19 13.52 4.03 5066239
1.39 13.52 4.03 5066239
1.6 13.52 4.03 5066239
1.82 13.52 4.03 5066239
2.01 13.52 4.03 5066239
2.21 13.52 4.03 5066239
2.42 13.52 4.03 5066239
2.61 13.52 4.03 5066239
2.81 13.52 4.03 5066239
3.28 13.52 4.03 18313984
3.02 13.52 4.02 18313984
3.22 13.52 4.02 18313984
3.24 13.52 4.01 18313984
3.26 13.52 3.11 16216831
3.27 13.52 3.11 16216831
3.26 13.52 3.23 16216831
3.27 13.52 3.45 16216831
3.26 13.52 3.45 16216831
2.02 13.52 0.39 5066239
2.06 13.52 0.39 5066239
2.42 13.52 0.39 5066239
2.21 13.52 0.47 5066239
2.29 13.52 0.47 5066239
2.46 13.52 4.03 5066239
0.8 13.18 3.36 16216575
0.8 13.18 3.54 16216575
0.82 13.18 3.79 18313728
0.81 13.18 3.99 18313728
0.83 13.18 4.01 18313728
1.03 13.18 4.01 18313728
1.24 13.18 4.01 5066239
1.44 13.18 4.01 5066239
1.62 13.18 4.02 5066239
1.84 13.18 4.02 5066239
2.03 13.18 4.02 5066239
2.23 13.18 4.02 5066239
2.42 13.18 4.03 5066239
2.64 13.18 4.03 5066239
2.84 13.18 4.03 5066239
3.24 13.18 3.93 18313984
3.3 13.18 3.93 18313984
3.04 13.18 4.03 18313984
3.24 13.18 4.03 18313984
3.26 13.18 4.03 18313984
3.46 13.18 4.02 18313984
3.36 13.18 3.47 16216831
3.36 13.18 3.47 16216831
3.36 13.18 3.93 16216831
0.7 12.84 3.39 16216575
0.7 12.84 3.57 16216575
0.82 12.84 3.76 18313728
0.83 12.84 3.99 18313728
0.86 12.84 4.02 18313728
1.04 12.84 4.02 18313728
1.25 12.84 4.01 5066239
1.45 12.84 4.01 5066239
1.65 12.84 4.02 5066239
1.84 12.84 4.02 5066239
2.04 12.84 4.02 5066239
2.25 12.84 4.02 5066239
2.46 12.84 4.02 5066239
2.66 12.84 4.03 5066239
2.86 12.84 4.03 5066239
3.26 12.84 3.94 18313984
3.34 12.84 3.94 18313984
3.06 12.84 4.03 18313984
3.26 12.84 4.03 18313984
3.27 12.84 4.0 18313984
3.45 12.84 4.0 16216831
3.46 12.84 3.94 16216831
0.64 12.5 3.59 16216575
0.75 12.5 3.79 18313728
0.83 12.5 3.98 18313728
0.84 12.5 3.99 18313728
0.82 12.5 4.02 18313728
1.0 12.5 4.02 18313728
1.22 12.5 4.02 5066239
1.42 12.5 4.02 5066239
1.62 12.5 4.02 5066239
1.81 12.5 4.02 5066239
2.02 12.5 4.02 5066239
2.21 12.5 4.02 5066239
2.42 12.5 4.02 5066239
2.63 12.5 4.03 5066239
2.83 12.5 4.03 5066239
3.43 12.5 3.81 18313984
3.33 12.5 3.81 18313984
3.03 12.5 4.03 18313984
3.23 12.5 4.03 18313984
3.28 12.5 4.01 18313984
3.47 12.5 4.01 16216831
3.47 12.5 3.81 16216831
0.65 12.23 3.56 16216575
0.78 12.23 3.79 18313728
0.84 12.23 3.91 18313728
0.86 12.23 3.99 18313728
0.82 12.23 4.01 18313728
1.02 12.23 4.01 18313728
1.23 12.23 4.01 5066239
1.4 12.23 4.01 5066239
1.64 12.23 4.01 5066239
1.81 12.23 4.02 5066239
2.02 12.23 4.02 5066239
2.24 12.23 4.02 5066239
2.44 12.23 4.02 5066239
2.64 12.23 4.03 5066239
2.84 12.23 4.03 5066239
3.44 12.23 3.8 18313984
3.36 12.23 3.8 18313984
3.04 12.23 4.03 18313984
3.24 12.23 4.03 18313984
3.29 12.23 4.01 18313984
3.48 12.23 4.01 16216831
3.48 12.23 3.8 16216831
0.66 11.89 3.57 16216575
0.78 11.89 3.78 18313728
0.84 11.89 3.88 18313728
0.94 11.89 3.99 18313728
0.81 11.89 4.0 18313728
1.0 11.89 4.0 18313728
1.23 11.89 4.0 5066239
1.43 11.89 4.01 5066239
1.64 11.89 4.01 5066239
1.83 11.89 4.01 5066239
2.04 11.89 4.01 5066239
2.22 11.89 4.01 5066239
2.43 11.89 4.01 5066239
2.64 11.89 4.02 5066239
2.84 11.89 4.02 5066239
3.44 11.89 3.8 18313984
3.37 11.89 3.8 18313984
3.03 11.89 4.02 18313984
3.24 11.89 4.02 18313984
3.31 11.89 4.02 18313984
3.46 11.89 4.01 18313984
3.48 11.89 4.0 16216831
3.48 11.89 3.8 16216831
0.67 11.55 3.58 16216575
0.8 11.55 3.79 18313728
0.85 11.55 3.99 18313728
1.04 11.55 3.99 18313728
0.81 11.55 4.0 18313728
0.95 11.55 4.0 18313728
1.25 11.55 4.0 5066239
1.23 11.55 4.0 5066239
1.46 11.55 4.0 5066239
1.65 11.55 4.0 5066239
1.84 11.55 4.01 5066239
2.03 11.55 4.01 5066239
2.26 11.55 4.01 5066239
2.46 11.55 4.02 5066239
2.65 11.55 4.02 5066239
2.86 11.55 4.02 5066239
3.46 11.55 3.8 18313984
3.38 11.55 3.8 18313984
3.05 11.55 4.03 18313984
3.25 11.55 4.03 18313984
3.31 11.55 4.03 18313984
3.47 11.55 4.01 18313984
3.5 11.55 3.99 16216831
3.5 11.55 3.8 16216831
0.68 11.2 3.58 16216575
0.81 11.2 3.78 18313728
0.87 11.2 3.85 18313728
1.04 11.2 3.99 18313728
0.86 11.2 4.0 18313728
1.0 11.2 4.0 18313728
1.24 11.2 3.99 5066239
1.47 11.2 3.99 5066239
1.65 11.2 3.99 5066239
1.83 11.2 3.99 5066239
2.06 11.2 3.99 5066239
2.22 11.2 3.99 5066239
2.54 11.2 3.99 5066239
1.23 11.2 4.0 5066239
1.41 11.2 4.0 5066239
1.62 11.2 4.0 5066239
1.87 11.2 4.0 5066239
2.04 11.2 4.0 5066239
2.27 11.2 4.0 5066239
2.45 11.2 4.0 5066239
2.67 11.2 4.01 5066239
2.86 11.2 4.01 5066239
3.47 11.2 3.8 18313984
3.4 11.2 3.8 18313984
3.07 11.2 4.01 18313984
3.26 11.2 4.01 18313984
3.34 11.2 4.01 18313984
3.5 11.2 4.0 18313984
3.51 11.2 3.99 16216831
3.51 11.2 3.8 16216831
0.7 10.86 3.32 16216575
0.69 10.86 3.56 16216575
0.82 10.86 3.78 18313728
0.88 10.86 3.85 18313728
1.07 10.86 3.99 18313728
0.87 10.86 4.0 18313728
0.91 10.86 4.0 18313728
1.28 10.86 3.98 5066239
1.46 10.86 3.98 5066239
1.66 10.86 3.98 5066239
1.88 10.86 3.99 5066239
2.08 10.86 3.99 5066239
2.27 10.86 3.99 5066239
2.34 10.86 3.99 5066239
1.23 10.86 4.0 5066239
1.47 10.86 4.0 5066239
1.66 10.86 4.0 5066239
1.78 10.86 4.0 5066239
2.08 10.86 4.0 5066239
2.27 10.86 4.0 5066239
2.47 10.86 4.0 5066239
2.66 10.86 4.0 5066239
2.88 10.86 4.0 5066239
3.48 10.86 3.8 18313984
3.39 10.86 3.8 18313984
3.08 10.86 4.02 18313984
3.28 10.86 4.02 18313984
3.34 10.86 4.02 18313984
3.5 10.86 4.0 18313984
3.51 10.86 3.98 16216831
3.51 10.86 3.8 16216831
0.69 10.53 3.59 16216575
0.83 10.53 3.79 18313728
0.88 10.53 3.98 18313728
1.05 10.53 3.98 18313728
0.75 10.53 4.0 18313728
1.08 10.53 4.0 18313728
1.24 10.53 3.97 5066239
1.47 10.53 3.97 5066239
1.67 10.53 3.97 5066239
1.87 10.53 3.97 5066239
2.06 10.53 3.97 5066239
2.24 10.53 3.98 5066239
2.48 10.53 3.99 5066239
2.67 10.53 3.99 5066239
2.81 10.53 3.99 5066239
2.99 10.53 3.99 5066239
1.28 10.53 4.0 5066239
1.48 10.53 4.0 5066239
1.67 10.53 4.0 5066239
1.87 10.53 4.0 5066239
2.08 10.53 4.0 5066239
2.27 10.53 4.0 5066239
2.29 10.53 4.0 5066239
2.64 10.53 4.0 5066239
2.87 10.53 4.0 5066239
3.48 10.53 3.81 18313984
3.39 10.53 3.81 18313984
3.08 10.53 4.01 18313984
3.28 10.53 4.01 18313984
3.35 10.53 4.01 18313984
3.51 10.53 3.97 16216831
3.51 10.53 3.81 16216831
0.7 10.18 3.58 16216575
0.83 10.18 3.78 18313728
0.87 10.18 3.97 18313728
1.08 10.18 3.98 18313728
0.8 10.18 4.0 18313728
1.09 10.18 4.0 18313728
1.24 10.18 3.97 5066239
1.47 10.18 3.97 5066239
1.66 10.18 3.97 5066239
1.89 10.18 3.98 5066239
2.08 10.18 3.98 5066239
2.29 10.18 3.98 5066239
2.49 10.18 3.98 5066239
2.66 10.18 3.99 5066239
2.88 10.18 3.99 5066239
1.27 10.18 4.0 5066239
1.44 10.18 4.0 5066239
1.86 10.18 4.0 5066239
2.09 10.18 4.0 5066239
2.16 10.18 4.0 5066239
2.47 10.18 4.0 5066239
2.68 10.18 4.0 5066239
2.87 10.18 4.0 5066239
3.41 10.18 4.0 18313984
3.09 10.18 4.0 18313984
3.29 10.18 4.01 18313984
3.36 10.18 4.01 18313984
3.52 10.18 4.01 18313984
3.52 10.18 3.66 16216831
3.49 10.18 3.66 16216831
3.51 10.18 4.0 16216831
0.7 9.85 3.57 16216575
0.83 9.85 3.78 18313728
0.85 9.85 3.98 18313728
1.06 9.85 3.99 18313728
0.76 9.85 4.0 18313728
1.08 9.85 4.0 18313728
1.27 9.85 3.98 5066239
1.48 9.85 3.97 5066239
1.67 9.85 3.97 5066239
1.86 9.85 3.97 5066239
2.08 9.85 3.98 5066239
2.27 9.85 3.98 5066239
2.47 9.85 3.98 5066239
2.68 9.85 3.98 5066239
2.88 9.85 3.98 5066239
3.0 9.85 3.99 5066239
1.29 9.85 4.0 5066239
1.49 9.85 4.0 5066239
1.62 9.85 4.0 5066239
1.82 9.85 4.0 5066239
2.0 9.85 4.0 5066239
2.26 9.85 4.0 5066239
2.49 9.85 4.0 5066239
2.68 9.85 4.0 5066239
2.84 9.85 4.0 5066239
3.48 9.85 3.81 18313984
3.4 9.85 3.81 18313984
3.08 9.85 4.0 18313984
3.28 9.85 4.02 18313984
3.36 9.85 4.02 18313984
3.5 9.85 4.02 18313984
3.52 9.85 3.98 16216831
3.52 9.85 3.81 16216831
0.69 9.57 3.38 16216575
0.69 9.57 3.59 16216575
0.84 9.57 3.79 18313728
0.88 9.57 3.83 18313728
1.02 9.57 3.96 18313728
0.86 9.57 4.0 18313728
1.05 9.57 4.0 18313728
1.27 9.57 3.98 5066239
1.48 9.57 3.97 5066239
1.68 9.57 3.97 5066239
1.88 9.57 3.98 5066239
2.08 9.57 3.99 5066239
2.28 9.57 3.99 5066239
2.47 9.57 3.99 5066239
2.67 9.57 3.99 5066239
2.88 9.57 3.99 5066239
3.03 9.57 3.99 5066239
1.24 9.57 4.0 5066239
1.4 9.57 4.0 5066239
1.86 9.57 4.0 5066239
2.25 9.57 4.0 5066239
2.31 9.57 4.0 5066239
2.63 9.57 4.0 5066239
2.87 9.57 4.0 5066239
3.48 9.57 3.8 18313984
3.41 9.57 3.8 18313984
3.08 9.57 4.0 18313984
3.28 9.57 4.0 18313984
3.36 9.57 4.0 18313984
3.51 9.57 4.0 18313984
3.52 9.57 3.98 16216831
3.52 9.57 3.8 16216831
0.7 9.24 3.34 16216575
0.7 9.24 3.57 16216575
0.86 9.24 3.79 18313728
0.87 9.24 3.97 18313728
1.08 9.24 3.98 18313728
0.76 9.24 4.0 18313728
1.07 9.24 4.0 18313728
1.26 9.24 3.98 5066239
1.49 9.24 3.98 5066239
1.68 9.24 3.98 5066239
1.87 9.24 3.98 5066239
2.09 9.24 3.98 5066239
2.27 9.24 3.98 5066239
2.46 9.24 3.99 5066239
2.69 9.24 3.99 5066239
2.82 9.24 3.99 5066239
1.27 9.24 4.0 5066239
1.49 9.24 4.0 5066239
1.65 9.24 4.0 5066239
1.88 9.24 4.0 5066239
2.07 9.24 4.0 5066239
2.26 9.24 4.0 5066239
2.49 9.24 4.0 5066239
2.54 9.24 4.0 5066239
2.89 9.24 4.0 5066239
3.49 9.24 3.99 18313984
3.08 9.24 3.99 18313984
3.41 9.24 3.99 18313984
3.09 9.24 4.0 18313984
3.28 9.24 4.0 18313984
3.36 9.24 4.0 18313984
3.55 9.24 4.0 18313984
3.52 9.24 3.98 16216831
3.52 9.24 3.99 16216831
0.71 8.91 3.37 16216575
0.71 8.91 3.59 16216575
0.86 8.91 3.79 18313728
0.88 8.91 3.97 18313728
1.08 8.91 3.98 18313728
0.8 8.91 4.0 18313728
1.09 8.91 4.0 18313728
1.29 8.91 3.98 5066239
1.49 8.91 3.98 5066239
1.68 8.91 3.98 5066239
1.89 8.91 3.98 5066239
2.08 8.91 3.98 5066239
2.27 8.91 3.98 5066239
2.47 8.91 3.99 5066239
2.67 8.91 3.99 5066239
2.88 8.91 3.99 5066239
2.99 8.91 3.99 5066239
1.29 8.91 4.0 5066239
1.48 8.91 4.0 5066239
1.69 8.91 4.01 5066239
1.89 8.91 4.01 5066239
2.07 8.91 4.01 5066239
2.27 8.91 4.01 5066239
2.49 8.91 4.01 5066239
2.69 8.91 4.0 5066239
2.84 8.91 4.0 5066239
3.49 8.91 3.8 18313984
3.41 8.91 3.8 18313984
3.08 8.91 4.0 18313984
3.29 8.91 4.0 18313984
3.37 8.91 4.0 18313984
3.54 8.91 4.0 18313984
3.53 8.91 3.97 16216831
3.53 8.91 3.8 16216831
0.69 8.56 2.95 16216575
0.69 8.56 3.18 16216575
0.7 8.56 3.37 16216575
0.7 8.56 3.56 16216575
0.86 8.56 3.79 18313728
0.87 8.56 3.81 18313728
1.02 8.56 3.98 18313728
0.86 8.56 4.0 18313728
1.07 8.56 4.0 18313728
1.21 8.56 3.99 5066239
1.44 8.56 3.99 5066239
1.66 8.56 3.99 5066239
1.74 8.56 3.99 5066239
2.07 8.56 3.99 5066239
2.25 8.56 3.99 5066239
2.66 8.56 3.99 5066239
2.78 8.56 3.99 5066239
2.94 8.56 3.99 5066239
1.27 8.56 4.0 5066239
1.45 8.56 4.0 5066239
1.56 8.56 4.0 5066239
1.86 8.56 4.0 5066239
2.04 8.56 4.0 5066239
2.27 8.56 4.0 5066239
2.47 8.56 4.0 5066239
2.65 8.56 4.0 5066239
2.87 8.56 4.0 5066239
3.47 8.56 3.81 18313984
3.41 8.56 3.81 18313984
3.07 8.56 4.01 18313984
3.27 8.56 4.01 18313984
3.36 8.56 4.01 18313984
3.52 8.56 4.0 18313984
3.53 8.56 3.99 16216831
3.52 8.56 3.81 16216831
0.69 8.2 3.35 16216575
0.7 8.2 3.57 16216575
0.84 8.2 3.79 18313728
0.87 8.2 3.82 18313728
1.07 8.2 3.99 18313728
0.87 8.2 4.0 18313728
1.07 8.2 4.0 18313728
1.17 8.2 3.99 5066239
1.45 8.2 3.98 5066239
1.66 8.2 3.98 5066239
1.83 8.2 3.99 5066239
2.04 8.2 3.99 5066239
2.35 8.2 3.99 5066239
1.27 8.2 4.0 5066239
1.45 8.2 4.0 5066239
1.66 8.2 4.0 5066239
1.86 8.2 4.0 5066239
2.07 8.2 4.0 5066239
2.26 8.2 4.01 5066239
2.46 8.2 4.01 5066239
2.67 8.2 4.01 5066239
2.87 8.2 4.0 5066239
3.47 8.2 3.8 18313984
3.41 8.2 3.8 18313984
3.06 8.2 4.01 18313984
3.27 8.2 4.01 18313984
3.36 8.2 4.01 18313984
3.51 8.2 4.01 18313984
3.52 8.2 3.99 16216831
3.51 8.2 3.8 16216831
0.7 7.84 3.34 16216575
0.7 7.84 3.56 16216575
0.83 7.84 3.78 18313728
0.89 7.84 3.99 18313728
1.07 7.84 3.99 18313728
0.81 7.84 4.0 18313728
1.08 7.84 4.0 18313728
1.14 7.84 4.0 18313728
1.29 7.84 3.99 5066239
1.4 7.84 3.99 5066239
1.69 7.84 3.99 5066239
2.14 7.84 3.99 5066239
1.49 7.84 4.0 5066239
1.65 7.84 4.0 5066239
1.89 7.84 4.0 5066239
2.07 7.84 4.0 5066239
2.28 7.84 4.0 5066239
2.47 7.84 4.0 5066239
2.68 7.84 4.0 5066239
2.88 7.84 4.0 5066239
3.49 7.84 3.8 18313984
3.41 7.84 3.8 18313984
3.09 7.84 4.01 18313984
3.29 7.84 4.01 18313984
3.36 7.84 4.01 18313984
3.54 7.84 4.0 18313984
3.52 7.84 3.99 16216831
3.52 7.84 3.8 16216831
0.7 7.49 3.39 16216575
0.7 7.49 3.56 16216575
0.83 7.49 3.78 18313728
0.89 7.49 3.83 18313728
0.94 7.49 3.99 18313728
0.87 7.49 4.01 18313728
1.06 7.49 4.01 18313728
1.28 7.49 4.01 5066239
1.49 7.49 4.0 5066239
1.69 7.49 4.0 5066239
1.89 7.49 4.0 5066239
2.08 7.49 4.01 5066239
2.29 7.49 4.01 5066239
2.49 7.49 4.01 5066239
2.69 7.49 4.01 5066239
2.89 7.49 4.01 5066239
3.49 7.49 3.81 18313984
3.41 7.49 3.81 18313984
3.09 7.49 4.02 18313984
3.29 7.49 4.02 18313984
3.36 7.49 4.02 18313984
3.51 7.49 4.01 18313984
3.52 7.49 3.81 16216831
0.7 7.19 3.35 16216575
0.7 7.19 3.58 16216575
0.83 7.19 3.79 18313728
0.89 7.19 3.86 18313728
0.92 7.19 3.99 18313728
0.87 7.19 4.0 18313728
1.06 7.19 4.01 18313728
1.29 7.19 4.01 5066239
1.47 7.19 4.01 5066239
1.68 7.19 4.01 5066239
1.88 7.19 4.01 5066239
2.09 7.19 4.01 5066239
2.27 7.19 4.01 5066239
2.49 7.19 4.01 5066239
2.68 7.19 4.02 5066239
2.89 7.19 4.02 5066239
3.49 7.19 3.8 18313984
3.41 7.19 3.8 18313984
3.09 7.19 4.02 18313984
3.29 7.19 4.02 18313984
3.35 7.19 4.02 18313984
3.51 7.19 4.0 18313984
3.52 7.19 4.0 16216831
3.52 7.19 3.8 16216831
0.7 6.84 3.58 16216575
0.83 6.84 3.79 18313728
0.87 6.84 3.85 18313728
1.04 6.84 3.99 18313728
0.87 6.84 4.0 18313728
0.95 6.84 4.0 18313728
1.48 6.84 3.99 5066239
1.68 6.84 3.99 5066239
1.8 6.84 3.99 5066239
1.94 6.84 3.99 5066239
2.25 6.84 3.99 5066239
1.26 6.84 4.0 5066239
1.45 6.84 4.0 5066239
1.65 6.84 4.0 5066239
1.87 6.84 4.0 5066239
2.07 6.84 4.0 5066239
2.27 6.84 4.0 5066239
2.48 6.84 4.01 5066239
2.68 6.84 4.01 5066239
2.88 6.84 4.01 5066239
3.48 6.84 3.8 18313984
3.41 6.84 3.8 18313984
3.08 6.84 4.03 18313984
3.28 6.84 4.03 18313984
3.35 6.84 4.03 18313984
3.52 6.84 4.01 18313984
3.51 6.84 3.99 16216831
3.51 6.84 3.8 16216831
0.71 6.5 3.13 16216575
0.7 6.5 3.57 16216575
0.83 6.5 3.78 18313728
0.89 6.5 3.86 18313728
0.92 6.5 3.98 18313728
0.89 6.5 4.01 18313728
1.07 6.5 4.01 18313728
1.27 6.5 4.01 5066239
1.47 6.5 4.01 5066239
1.69 6.5 4.01 5066239
1.88 6.5 4.01 5066239
2.07 6.5 4.01 5066239
2.29 6.5 4.01 5066239
2.49 6.5 4.01 5066239
2.69 6.5 4.01 5066239
2.89 6.5 4.01 5066239
3.49 6.5 3.8 18313984
3.41 6.5 3.8 18313984
3.09 6.5 4.02 18313984
3.29 6.5 4.02 18313984
3.35 6.5 4.02 18313984
3.55 6.5 4.0 18313984
3.52 6.5 4.0 16216831
3.51 6.5 3.8 16216831
0.72 6.12 3.35 16216575
0.71 6.12 3.55 16216575
0.83 6.12 3.78 18313728
0.9 6.12 3.89 18313728
0.99 6.12 3.99 18313728
0.87 6.12 4.0 18313728
1.05 6.12 4.0 18313728
1.14 6.12 4.0 18313728
1.28 6.12 3.99 5066239
1.49 6.12 3.98 5066239
1.69 6.12 3.98 5066239
1.9 6.12 3.98 5066239
2.1 6.12 3.98 5066239
2.28 6.12 3.99 5066239
2.5 6.12 3.99 5066239
2.66 6.12 3.99 5066239
2.85 6.12 3.99 5066239
1.5 6.12 4.01 5066239
1.7 6.12 4.01 5066239
1.88 6.12 4.01 5066239
2.04 6.12 4.0 5066239
2.19 6.12 4.0 5066239
2.4 6.12 4.0 5066239
2.69 6.12 4.0 5066239
2.9 6.12 4.0 5066239
3.5 6.12 3.8 18313984
3.42 6.12 3.8 18313984
3.1 6.12 4.01 18313984
3.3 6.12 4.01 18313984
3.36 6.12 4.01 18313984
3.54 6.12 4.0 18313984
3.53 6.12 3.99 16216831
3.52 6.12 3.8 16216831
0.68 5.76 3.16 16216575
0.69 5.76 3.39 16216575
0.69 5.76 3.59 16216575
0.83 5.76 3.79 18313728
0.86 5.76 3.84 18313728
0.9 5.76 3.99 18313728
0.86 5.76 4.02 18313728
1.04 5.76 4.02 18313728
1.24 5.76 4.01 5066239
1.44 5.76 4.01 5066239
1.64 5.76 4.01 5066239
1.86 5.76 4.01 5066239
2.05 5.76 4.01 5066239
2.26 5.76 4.01 5066239
2.46 5.76 4.01 5066239
2.65 5.76 4.01 5066239
2.86 5.76 4.01 5066239
3.46 5.76 3.81 18313984
3.42 5.76 3.81 18313984
3.06 5.76 4.04 18313984
3.26 5.76 4.04 18313984
3.36 5.76 4.04 18313984
3.52 5.76 4.01 18313984
3.5 5.76 4.01 16216831
3.5 5.76 3.81 16216831
0.89 5.38 0.9 16216575
0.87 5.38 1.55 16216575
0.9 5.38 1.77 16216575
0.88 5.38 2.78 16216575
0.88 5.38 2.95 16216575
0.88 5.38 3.15 16216575
0.88 5.38 3.37 16216575
0.87 5.38 3.57 16216575
0.87 5.38 3.67 18313728
0.9 5.38 3.98 18313728
0.98 5.38 4.01 18313728
1.17 5.38 4.01 18313728
2.79 5.38 3.76 5066239
2.99 5.38 3.76 5066239
2.19 5.38 3.89 5066239
2.39 5.38 3.89 5066239
2.59 5.38 3.8 5066239
2.66 5.38 3.8 5066239
1.37 5.38 4.01 5066239
1.58 5.38 4.01 5066239
1.79 5.38 4.01 5066239
1.97 5.38 4.0 5066239
2.0 5.38 4.0 5066239
2.39 5.38 4.03 5066239
2.56 5.38 4.03 5066239
2.78 5.38 4.03 5066239
2.94 5.38 4.03 5066239
3.15 5.38 3.84 18313984
3.12 5.38 3.84 18313984
3.28 5.38 3.84 18313984
3.16 5.38 4.05 18313984
3.39 5.38 4.06 18313984
3.51 5.38 4.06 18313984
3.33 5.38 3.03 16216831
3.29 5.38 3.03 16216831
3.28 5.38 3.22 16216831
3.28 5.38 3.4 16216831
3.28 5.38 3.84 16216831
1.54 5.01 0.79 16216575
1.43 5.01 1.56 16216575
1.47 5.01 1.74 16216575
1.53 5.01 1.99 16216575
1.57 5.01 2.19 16216575
1.62 5.01 2.36 16216575
1.63 5.01 2.38 16216575
1.73 5.01 2.57 16216575
2.41 5.01 3.72 5066239
2.49 5.01 3.78 5066239
2.62 5.01 3.97 5066239
2.64 5.01 3.98 5066239
2.81 5.01 4.04 5066239
3.01 5.01 4.05 5066239
3.17 5.01 4.05 18313984
3.4 5.01 4.05 18313984
3.5 5.01 4.05 18313984
1.81 5.01 2.76 5066239
1.9 5.01 2.76 5066239
1.97 5.01 2.99 5066239
2.02 5.01 3.08 5066239
2.08 5.01 3.19 5066239
2.22 5.01 3.36 5066239
2.23 5.01 3.38 5066239
2.35 5.01 4.05 5066239
