# File_name:transit_20220730-085127_l1_c502_id5.pcd
# Mode:normal
# Main_id:5
# Lane1 trs_id:5 lane_min_x:300 lane_max_x:3900
# Time_begin:2022-07-30T08:51:27 Occupancy:8891ms
# Height:4050mm Width:2592mm Length:17220mm
# Speed:0km/h Direction:A
# Axles:0
# Class:Semitruck Class_id:8 Class_cmk:502
# Offset X:2135mm Y:16544mm Z:3497mm
VERSION .7
FIELDS x y z rgb
SIZE 4 4 4 4
TYPE F F F F
COUNT 1 1 1 1
WIDTH 1770
HEIGHT 1
VIEWPOINT 0 0 1 0 0 0 0
POINTS 1770
DATA ascii
2.71 24.37 2.6 18313984
0.87 24.08 2.79 18313728
1.13 24.08 2.79 18313728
1.71 24.08 2.79 5066239
1.98 24.08 2.79 5066239
1.31 24.08 2.85 5066239
1.5 24.08 2.85 5066239
1.82 24.08 2.83 5066239
2.13 24.08 2.83 5066239
2.32 24.08 2.84 5066239
2.52 24.08 2.84 5066239
2.73 24.08 2.89 18313984
2.89 24.08 2.89 18313984
3.08 24.08 2.79 16216831
3.02 24.08 2.89 16216831
0.9 23.82 2.38 16216575
0.92 23.82 2.45 16216575
0.86 23.82 2.78 16216575
0.97 23.82 2.85 16216575
1.17 23.82 2.85 16216575
0.96 23.82 3.25 18313728
1.15 23.82 3.25 18313728
1.34 23.82 3.26 5066239
1.57 23.82 3.32 5066239
1.74 23.82 3.35 5066239
1.97 23.82 3.35 5066239
2.16 23.82 3.34 5066239
2.35 23.82 3.29 5066239
2.57 23.82 3.29 5066239
2.77 23.82 3.29 5066239
2.97 23.82 3.21 18313984
2.95 23.82 3.11 18313984
3.37 23.82 2.2 16216831
3.39 23.82 2.2 16216831
3.32 23.82 2.54 16216831
3.17 23.82 2.6 16216831
3.32 23.82 2.61 16216831
3.12 23.82 2.8 16216831
2.98 23.82 2.8 16216831
1.57 23.82 2.79 5066239
1.74 23.82 2.78 5066239
1.95 23.82 2.77 5066239
2.15 23.82 2.77 5066239
2.82 23.82 2.79 5066239
1.37 23.82 2.8 5066239
1.5 23.82 2.81 5066239
1.74 23.82 2.81 5066239
1.8 23.82 2.84 5066239
2.15 23.82 2.84 5066239
2.36 23.82 2.84 5066239
2.56 23.82 2.83 5066239
2.77 23.82 2.83 5066239
2.94 23.82 3.21 5066239
0.89 23.51 2.17 16216575
0.68 23.51 2.53 16216575
0.61 23.51 2.65 16216575
0.86 23.51 2.79 16216575
0.89 23.51 2.93 16216575
0.9 23.51 3.18 18313728
0.96 23.51 3.26 18313728
0.96 23.51 3.29 18313728
1.15 23.51 3.29 5066239
1.35 23.51 3.29 5066239
1.56 23.51 3.39 5066239
1.73 23.51 3.39 5066239
1.96 23.51 3.39 5066239
2.15 23.51 3.38 5066239
2.34 23.51 3.33 5066239
2.54 23.51 3.33 5066239
1.11 23.51 3.43 5066239
1.36 23.51 3.48 5066239
1.54 23.51 3.5 5066239
1.76 23.51 3.51 5066239
1.95 23.51 3.52 5066239
2.16 23.51 3.52 5066239
2.35 23.51 3.52 5066239
2.56 23.51 3.44 5066239
2.59 23.51 3.4 5066239
2.76 23.51 3.33 18313984
2.96 23.51 3.26 18313984
2.98 23.51 3.2 18313984
3.11 23.51 1.42 16216831
3.09 23.51 1.42 16216831
3.09 23.51 1.73 16216831
3.09 23.51 1.82 16216831
3.08 23.51 2.05 16216831
3.14 23.51 2.58 16216831
3.13 23.51 2.61 16216831
3.03 23.51 2.86 16216831
3.0 23.51 3.33 16216831
1.05 23.19 1.92 16216575
1.09 23.19 1.88 16216575
0.93 23.19 2.1 16216575
1.08 23.19 2.01 16216575
0.89 23.19 2.99 16216575
0.9 23.19 3.19 16216575
1.06 23.19 3.3 18313728
1.23 23.19 3.37 18313728
1.25 23.19 3.56 18313728
1.46 23.19 3.58 5066239
1.65 23.19 3.59 5066239
1.85 23.19 3.59 5066239
2.04 23.19 3.54 5066239
2.26 23.19 3.54 5066239
2.45 23.19 3.57 5066239
2.65 23.19 3.57 5066239
2.73 23.19 3.57 5066239
1.77 23.19 3.6 5066239
2.06 23.19 3.6 5066239
2.26 23.19 3.6 5066239
2.44 23.19 3.6 5066239
2.59 23.19 3.6 5066239
2.86 23.19 3.34 18313984
3.1 23.19 3.33 18313984
3.13 23.19 1.81 16216831
3.11 23.19 1.81 16216831
3.05 23.19 2.66 16216831
3.2 23.19 2.77 16216831
3.05 23.19 2.86 16216831
3.02 23.19 3.02 16216831
3.0 23.19 3.34 16216831
0.86 22.9 1.69 16216575
1.04 22.9 1.97 16216575
0.99 22.9 2.06 16216575
0.88 22.9 2.94 16216575
0.9 22.9 3.18 16216575
1.04 22.9 3.31 18313728
1.12 22.9 3.38 18313728
1.04 22.9 3.61 18313728
1.22 22.9 3.61 18313728
1.25 22.9 3.59 5066239
1.44 22.9 3.59 5066239
1.45 22.9 3.62 5066239
1.63 22.9 3.62 5066239
1.85 22.9 3.62 5066239
2.04 22.9 3.63 5066239
2.25 22.9 3.63 5066239
2.45 22.9 3.63 5066239
2.65 22.9 3.63 5066239
2.85 22.9 3.4 18313984
2.83 22.9 3.4 18313984
2.77 22.9 3.4 18313984
3.13 22.9 2.0 16216831
3.11 22.9 2.0 16216831
3.1 22.9 2.22 16216831
3.08 22.9 2.45 16216831
3.07 22.9 2.6 16216831
3.04 22.9 2.85 16216831
3.06 22.9 2.9 16216831
3.03 22.9 3.01 16216831
3.01 22.9 3.4 16216831
0.85 22.6 1.73 16216575
0.87 22.6 1.88 16216575
0.86 22.6 2.11 16216575
0.87 22.6 2.24 16216575
0.88 22.6 2.72 16216575
0.88 22.6 2.94 16216575
0.9 22.6 3.19 16216575
1.04 22.6 3.38 16216575
1.05 22.6 3.33 16216575
1.04 22.6 3.43 18313728
1.09 22.6 3.59 18313728
1.04 22.6 3.71 18313728
1.23 22.6 3.72 18313728
1.44 22.6 3.73 5066239
1.64 22.6 3.73 5066239
1.83 22.6 3.74 5066239
2.03 22.6 3.75 5066239
2.24 22.6 3.75 5066239
2.43 22.6 3.75 5066239
2.62 22.6 3.74 5066239
2.9 22.6 3.71 18313984
2.84 22.6 3.6 18313984
2.88 22.6 3.6 18313984
3.13 22.6 2.08 16216831
3.11 22.6 2.08 16216831
3.09 22.6 2.26 16216831
3.09 22.6 2.4 16216831
3.07 22.6 2.6 16216831
3.04 22.6 2.85 16216831
3.06 22.6 2.9 16216831
3.04 22.6 3.03 16216831
3.02 22.6 3.71 16216831
0.87 22.24 1.79 16216575
0.88 22.24 1.92 16216575
0.88 22.24 2.13 16216575
0.89 22.24 2.56 16216575
0.89 22.24 2.76 16216575
0.9 22.24 2.95 16216575
0.91 22.24 3.17 16216575
0.98 22.24 3.36 16216575
0.99 22.24 3.58 18313728
0.92 22.24 3.79 18313728
1.18 22.24 3.79 18313728
1.06 22.24 3.8 18313728
1.23 22.24 3.8 18313728
1.45 22.24 3.78 5066239
1.66 22.24 3.78 5066239
1.84 22.24 3.78 5066239
2.04 22.24 3.78 5066239
2.24 22.24 3.78 5066239
2.44 22.24 3.78 5066239
2.66 22.24 3.78 5066239
1.44 22.24 3.82 5066239
1.64 22.24 3.82 5066239
1.85 22.24 3.83 5066239
2.06 22.24 3.84 5066239
2.26 22.24 3.84 5066239
2.46 22.24 3.84 5066239
2.66 22.24 3.84 5066239
2.83 22.24 3.77 18313984
2.97 22.24 3.77 18313984
2.86 22.24 3.8 18313984
2.9 22.24 3.8 18313984
3.15 22.24 2.07 16216831
3.13 22.24 2.07 16216831
3.11 22.24 2.26 16216831
3.1 22.24 2.43 16216831
3.09 22.24 2.65 16216831
3.06 22.24 2.84 16216831
3.08 22.24 2.9 16216831
3.05 22.24 3.01 16216831
3.03 22.24 3.2 16216831
2.99 22.24 3.77 16216831
1.06 21.94 2.12 16216575
0.85 21.94 2.21 16216575
0.92 21.94 2.2 16216575
0.69 21.94 2.4 16216575
0.88 21.94 2.44 16216575
0.76 21.94 2.6 16216575
0.89 21.94 2.76 16216575
0.82 21.94 2.8 16216575
0.9 21.94 2.95 16216575
0.69 21.94 3.01 16216575
0.91 21.94 3.17 16216575
0.71 21.94 3.21 16216575
0.93 21.94 3.38 16216575
0.71 21.94 3.41 16216575
0.94 21.94 3.56 18313728
0.75 21.94 3.6 18313728
0.97 21.94 3.79 18313728
0.79 21.94 3.8 18313728
1.05 21.94 3.84 18313728
1.26 21.94 3.84 5066239
1.44 21.94 3.84 5066239
1.66 21.94 3.84 5066239
1.86 21.94 3.85 5066239
2.05 21.94 3.86 5066239
2.24 21.94 3.86 5066239
2.42 21.94 3.86 5066239
2.65 21.94 3.84 5066239
3.04 21.94 3.84 18313984
2.85 21.94 3.81 18313984
3.02 21.94 3.81 18313984
3.15 21.94 1.92 16216831
3.14 21.94 1.92 16216831
3.13 21.94 2.25 16216831
3.09 21.94 2.46 16216831
3.08 21.94 2.63 16216831
3.1 21.94 2.81 16216831
3.08 21.94 3.01 16216831
3.06 21.94 3.2 16216831
3.04 21.94 3.2 16216831
1.34 21.94 2.06 5066239
1.26 21.94 2.06 5066239
1.35 21.94 3.84 5066239
0.77 21.7 0.78 16216575
0.63 21.7 0.82 16216575
1.01 21.7 0.84 16216575
0.69 21.7 1.03 16216575
0.69 21.7 1.2 16216575
0.73 21.7 1.4 16216575
0.66 21.7 1.61 16216575
0.65 21.7 1.83 16216575
0.65 21.7 2.0 16216575
0.68 21.7 2.2 16216575
0.66 21.7 2.41 16216575
0.66 21.7 2.62 16216575
0.85 21.7 2.76 16216575
0.67 21.7 2.8 16216575
0.85 21.7 2.98 16216575
0.66 21.7 3.02 16216575
0.87 21.7 3.19 16216575
0.67 21.7 3.21 16216575
0.89 21.7 3.33 16216575
0.67 21.7 3.42 16216575
0.9 21.7 3.51 18313728
0.86 21.7 3.78 18313728
0.99 21.7 3.84 18313728
1.03 21.7 3.84 18313728
3.13 21.7 3.84 18313984
2.82 21.7 3.87 18313984
3.02 21.7 3.87 18313984
3.13 21.7 2.5 16216831
3.16 21.7 2.5 16216831
3.15 21.7 2.62 16216831
3.14 21.7 2.8 16216831
3.12 21.7 3.03 16216831
2.8 21.7 3.37 16216831
3.0 21.7 3.37 16216831
3.09 21.7 3.2 16216831
1.18 21.7 0.86 5066239
1.26 21.7 0.86 5066239
1.9 21.7 0.99 5066239
1.89 21.7 1.04 5066239
1.59 21.7 1.31 5066239
1.66 21.7 1.31 5066239
1.87 21.7 1.36 5066239
1.82 21.7 1.43 5066239
1.95 21.7 1.54 5066239
2.02 21.7 2.59 5066239
2.09 21.7 2.79 5066239
2.21 21.7 2.88 5066239
2.38 21.7 2.99 5066239
2.41 21.7 3.02 5066239
2.58 21.7 3.19 5066239
2.62 21.7 3.84 5066239
0.91 21.4 1.5 16216575
0.69 21.4 3.99 18313728
0.81 21.4 4.0 18313728
1.0 21.4 4.0 18313728
1.2 21.4 4.01 5066239
1.4 21.4 4.01 5066239
1.61 21.4 4.01 5066239
1.81 21.4 4.02 5066239
2.02 21.4 4.02 5066239
2.21 21.4 4.02 5066239
2.41 21.4 4.03 5066239
2.61 21.4 4.03 5066239
2.81 21.4 4.03 5066239
3.26 21.4 3.8 18313984
3.11 21.4 3.8 18313984
3.25 21.4 3.93 18313984
3.02 21.4 4.01 18313984
3.11 21.4 4.01 18313984
3.02 21.4 0.96 16216831
3.04 21.4 0.96 16216831
2.98 21.4 1.17 16216831
3.01 21.4 1.29 16216831
3.09 21.4 1.35 16216831
3.11 21.4 1.59 16216831
3.1 21.4 1.67 16216831
3.23 21.4 1.78 16216831
3.06 21.4 1.82 16216831
3.3 21.4 1.94 16216831
3.06 21.4 2.06 16216831
3.28 21.4 2.17 16216831
3.05 21.4 2.2 16216831
3.35 21.4 2.39 16216831
3.05 21.4 2.47 16216831
3.34 21.4 2.59 16216831
3.05 21.4 2.65 16216831
3.32 21.4 2.78 16216831
3.04 21.4 2.8 16216831
3.32 21.4 2.99 16216831
3.05 21.4 3.0 16216831
3.29 21.4 3.17 16216831
3.05 21.4 3.2 16216831
3.25 21.4 3.38 16216831
3.14 21.4 3.56 16216831
3.23 21.4 3.57 16216831
3.13 21.4 3.57 16216831
1.72 21.4 0.86 5066239
1.2 21.4 0.86 5066239
1.42 21.4 0.86 5066239
1.6 21.4 0.86 5066239
1.8 21.4 0.89 5066239
1.97 21.4 0.92 5066239
2.82 21.4 0.96 5066239
2.59 21.4 1.0 5066239
1.33 21.4 2.56 5066239
1.33 21.4 2.76 5066239
1.41 21.4 2.93 5066239
1.46 21.4 2.94 5066239
1.52 21.4 3.8 5066239
0.89 21.16 1.59 16216575
0.69 21.16 3.56 16216575
0.69 21.16 3.76 18313728
0.64 21.16 3.99 18313728
0.59 21.16 4.0 18313728
0.86 21.16 4.0 18313728
1.05 21.16 4.0 5066239
1.28 21.16 4.0 5066239
1.46 21.16 4.01 5066239
1.67 21.16 4.01 5066239
1.89 21.16 4.01 5066239
2.09 21.16 4.02 5066239
2.28 21.16 4.02 5066239
2.48 21.16 4.03 5066239
2.69 21.16 4.03 5066239
3.14 21.16 4.03 18313984
2.89 21.16 4.04 18313984
3.09 21.16 4.04 18313984
3.12 21.16 4.01 18313984
3.15 21.16 0.67 16216831
3.11 21.16 0.67 16216831
3.12 21.16 1.67 16216831
3.11 21.16 1.8 16216831
3.1 21.16 2.55 16216831
3.09 21.16 2.62 16216831
3.1 21.16 2.67 16216831
3.09 21.16 2.83 16216831
3.1 21.16 2.99 16216831
3.09 21.16 3.03 16216831
3.09 21.16 3.2 16216831
3.08 21.16 3.4 16216831
3.09 21.16 4.03 16216831
0.68 20.9 3.99 18313728
0.9 20.9 3.99 18313728
0.58 20.9 4.0 18313728
0.75 20.9 4.0 18313728
1.0 20.9 3.99 5066239
1.48 20.9 3.99 5066239
1.13 20.9 4.0 5066239
1.31 20.9 4.0 5066239
1.52 20.9 4.0 5066239
1.73 20.9 4.0 5066239
1.9 20.9 4.01 5066239
2.11 20.9 4.01 5066239
2.32 20.9 4.02 5066239
2.53 20.9 4.02 5066239
2.73 20.9 4.02 5066239
3.13 20.9 3.97 18313984
3.14 20.9 3.97 18313984
2.93 20.9 4.01 18313984
3.1 20.9 4.01 18313984
3.28 20.9 4.01 18313984
3.11 20.9 0.5 16216831
3.08 20.9 0.5 16216831
3.12 20.9 1.3 16216831
3.12 20.9 2.06 16216831
3.12 20.9 2.27 16216831
3.11 20.9 2.4 16216831
3.11 20.9 2.65 16216831
3.11 20.9 2.82 16216831
3.1 20.9 3.0 16216831
3.1 20.9 3.21 16216831
3.09 20.9 3.42 16216831
3.12 20.9 3.97 16216831
0.75 20.61 3.2 16216575
0.73 20.61 3.57 16216575
0.74 20.61 3.7 18313728
0.78 20.61 3.98 18313728
0.97 20.61 3.99 18313728
0.81 20.61 4.01 18313728
1.01 20.61 4.01 18313728
1.2 20.61 3.99 5066239
1.4 20.61 3.99 5066239
1.61 20.61 3.99 5066239
1.68 20.61 3.99 5066239
1.21 20.61 4.02 5066239
1.4 20.61 4.02 5066239
1.61 20.61 4.01 5066239
1.81 20.61 4.0 5066239
2.0 20.61 4.0 5066239
2.19 20.61 4.0 5066239
2.41 20.61 4.01 5066239
2.6 20.61 4.02 5066239
2.81 20.61 4.02 5066239
3.11 20.61 4.02 18313984
3.01 20.61 4.02 18313984
3.11 20.61 4.01 18313984
3.29 20.61 4.01 18313984
3.14 20.61 2.54 16216831
3.13 20.61 2.54 16216831
3.13 20.61 2.6 16216831
3.12 20.61 2.82 16216831
3.12 20.61 3.01 16216831
3.11 20.61 3.22 16216831
3.11 20.61 3.4 16216831
3.11 20.61 4.02 16216831
0.75 20.31 3.38 16216575
0.75 20.31 3.56 16216575
0.74 20.31 3.75 18313728
0.77 20.31 3.98 18313728
0.96 20.31 3.98 18313728
0.64 20.31 4.0 18313728
0.97 20.31 4.0 18313728
1.16 20.31 3.99 5066239
1.36 20.31 3.99 5066239
1.57 20.31 3.99 5066239
1.77 20.31 3.99 5066239
1.18 20.31 4.01 5066239
1.38 20.31 4.01 5066239
1.58 20.31 4.01 5066239
1.74 20.31 4.0 5066239
1.97 20.31 4.0 5066239
2.18 20.31 4.01 5066239
2.37 20.31 4.01 5066239
2.58 20.31 4.02 5066239
2.78 20.31 4.02 5066239
3.12 20.31 4.02 18313984
2.98 20.31 4.02 18313984
3.13 20.31 4.0 18313984
3.24 20.31 4.0 18313984
3.15 20.31 2.11 16216831
3.16 20.31 2.11 16216831
3.15 20.31 2.46 16216831
3.14 20.31 2.63 16216831
3.13 20.31 2.8 16216831
3.13 20.31 3.0 16216831
3.13 20.31 3.21 16216831
3.12 20.31 3.42 16216831
3.12 20.31 4.02 16216831
0.76 20.06 3.39 16216575
0.76 20.06 3.57 16216575
0.75 20.06 3.75 18313728
0.77 20.06 3.98 18313728
0.96 20.06 3.98 18313728
0.77 20.06 4.0 18313728
0.97 20.06 4.0 18313728
1.15 20.06 3.99 5066239
1.36 20.06 3.99 5066239
1.57 20.06 3.99 5066239
1.77 20.06 3.99 5066239
1.94 20.06 3.99 5066239
2.14 20.06 3.99 5066239
1.17 20.06 4.0 5066239
1.36 20.06 4.0 5066239
1.57 20.06 4.0 5066239
1.74 20.06 4.0 5066239
1.97 20.06 4.0 5066239
2.16 20.06 4.0 5066239
2.36 20.06 4.01 5066239
2.55 20.06 4.01 5066239
2.77 20.06 4.01 5066239
3.13 20.06 4.01 18313984
2.96 20.06 4.01 18313984
3.13 20.06 4.0 18313984
3.25 20.06 4.0 18313984
3.15 20.06 2.83 16216831
3.14 20.06 2.83 16216831
3.14 20.06 3.03 16216831
3.14 20.06 3.2 16216831
3.14 20.06 3.43 16216831
3.13 20.06 4.01 16216831
0.78 19.82 3.35 16216575
0.77 19.82 3.57 16216575
0.76 19.82 3.79 18313728
0.87 19.82 3.98 18313728
1.06 19.82 3.98 18313728
0.87 19.82 4.0 18313728
1.07 19.82 4.0 18313728
1.27 19.82 3.98 5066239
1.46 19.82 3.98 5066239
1.66 19.82 3.98 5066239
1.85 19.82 3.99 5066239
2.03 19.82 3.99 5066239
2.24 19.82 3.99 5066239
1.26 19.82 4.0 5066239
1.47 19.82 4.0 5066239
1.66 19.82 4.0 5066239
1.86 19.82 4.0 5066239
2.07 19.82 4.0 5066239
2.27 19.82 4.0 5066239
2.46 19.82 4.0 5066239
2.66 19.82 4.0 5066239
3.15 19.82 4.01 18313984
2.85 19.82 4.01 18313984
3.07 19.82 4.01 18313984
3.14 19.82 4.0 18313984
3.19 19.82 2.55 16216831
3.17 19.82 2.55 16216831
3.17 19.82 2.6 16216831
3.16 19.82 2.82 16216831
3.16 19.82 3.02 16216831
3.16 19.82 3.2 16216831
3.15 19.82 3.42 16216831
3.15 19.82 4.01 16216831
0.79 19.58 3.17 16216575
0.79 19.58 3.36 16216575
0.78 19.58 3.58 16216575
0.78 19.58 3.75 18313728
0.82 19.58 3.98 18313728
1.0 19.58 3.98 18313728
0.64 19.58 4.0 18313728
0.96 19.58 4.0 18313728
1.23 19.58 3.98 5066239
1.43 19.58 3.98 5066239
1.63 19.58 3.99 5066239
1.82 19.58 3.99 5066239
1.98 19.58 3.99 5066239
2.22 19.58 3.99 5066239
2.37 19.58 3.99 5066239
1.22 19.58 4.0 5066239
1.42 19.58 4.0 5066239
1.62 19.58 4.0 5066239
1.82 19.58 4.0 5066239
2.02 19.58 4.0 5066239
2.04 19.58 4.0 5066239
2.42 19.58 4.0 5066239
2.62 19.58 4.0 5066239
2.83 19.58 4.0 5066239
3.17 19.58 4.01 18313984
3.02 19.58 4.01 18313984
3.16 19.58 4.01 18313984
3.32 19.58 4.01 18313984
3.18 19.58 2.64 16216831
3.18 19.58 2.64 16216831
3.17 19.58 2.8 16216831
3.17 19.58 3.02 16216831
3.16 19.58 3.21 16216831
3.17 19.58 3.42 16216831
3.16 19.58 4.01 16216831
0.8 19.33 3.37 16216575
0.8 19.33 3.58 16216575
0.79 19.33 3.75 18313728
0.81 19.33 3.98 18313728
1.0 19.33 3.98 18313728
0.65 19.33 4.0 18313728
1.0 19.33 4.0 18313728
1.23 19.33 3.98 5066239
1.43 19.33 3.98 5066239
1.63 19.33 3.98 5066239
1.84 19.33 3.98 5066239
2.03 19.33 3.98 5066239
2.22 19.33 3.99 5066239
2.31 19.33 3.99 5066239
2.47 19.33 3.99 5066239
1.22 19.33 4.0 5066239
1.44 19.33 4.0 5066239
1.61 19.33 4.0 5066239
1.84 19.33 4.0 5066239
2.02 19.33 4.0 5066239
2.22 19.33 4.0 5066239
2.43 19.33 4.0 5066239
2.63 19.33 4.0 5066239
2.84 19.33 4.0 5066239
3.17 19.33 4.0 18313984
3.03 19.33 4.0 18313984
3.17 19.33 4.0 18313984
3.33 19.33 4.0 18313984
3.2 19.33 2.63 16216831
3.19 19.33 2.63 16216831
3.18 19.33 2.84 16216831
3.18 19.33 3.0 16216831
3.18 19.33 3.22 16216831
3.17 19.33 3.41 16216831
3.17 19.33 4.0 16216831
0.81 19.08 3.15 16216575
0.81 19.08 3.39 16216575
0.81 19.08 3.56 16216575
0.8 19.08 3.76 18313728
0.81 19.08 3.97 18313728
1.04 19.08 3.98 18313728
0.66 19.08 4.0 18313728
1.04 19.08 4.0 18313728
1.23 19.08 3.98 5066239
1.45 19.08 3.98 5066239
1.65 19.08 3.98 5066239
1.84 19.08 3.98 5066239
2.05 19.08 3.98 5066239
2.25 19.08 3.99 5066239
2.37 19.08 3.99 5066239
1.19 19.08 4.0 5066239
1.45 19.08 4.0 5066239
1.65 19.08 4.0 5066239
1.84 19.08 4.0 5066239
2.05 19.08 4.01 5066239
2.24 19.08 4.01 5066239
2.45 19.08 4.01 5066239
2.65 19.08 4.01 5066239
2.85 19.08 4.01 5066239
3.18 19.08 4.01 18313984
3.05 19.08 4.01 18313984
3.18 19.08 4.01 18313984
3.33 19.08 4.01 18313984
3.23 19.08 2.53 16216831
3.21 19.08 2.53 16216831
3.2 19.08 2.65 16216831
3.19 19.08 2.87 16216831
3.19 19.08 3.02 16216831
3.19 19.08 3.24 16216831
3.18 19.08 3.43 16216831
3.18 19.08 4.01 16216831
0.83 18.77 3.19 16216575
0.83 18.77 3.38 16216575
0.82 18.77 3.58 16216575
0.82 18.77 3.79 18313728
0.84 18.77 3.97 18313728
1.07 18.77 3.97 18313728
0.86 18.77 4.0 18313728
0.96 18.77 4.0 18313728
1.24 18.77 3.97 5066239
1.44 18.77 3.97 5066239
1.65 18.77 3.97 5066239
1.85 18.77 3.97 5066239
2.07 18.77 3.98 5066239
2.27 18.77 3.98 5066239
2.47 18.77 3.99 5066239
2.66 18.77 3.99 5066239
1.27 18.77 4.0 5066239
1.45 18.77 4.0 5066239
1.49 18.77 4.0 5066239
1.86 18.77 4.0 5066239
2.06 18.77 4.0 5066239
2.24 18.77 4.01 5066239
2.46 18.77 4.01 5066239
2.63 18.77 4.01 5066239
2.86 18.77 4.01 5066239
3.2 18.77 4.01 18313984
3.07 18.77 4.01 18313984
3.2 18.77 4.01 18313984
3.33 18.77 4.01 18313984
3.22 18.77 2.81 16216831
3.21 18.77 2.81 16216831
3.21 18.77 3.02 16216831
3.2 18.77 3.23 16216831
3.2 18.77 3.4 16216831
3.2 18.77 4.01 16216831
0.86 18.52 2.91 16216575
0.84 18.52 3.16 16216575
0.84 18.52 3.39 16216575
0.83 18.52 3.59 16216575
0.83 18.52 3.76 18313728
0.84 18.52 3.97 18313728
1.07 18.52 3.97 18313728
0.87 18.52 4.0 18313728
0.96 18.52 4.0 18313728
1.24 18.52 3.97 5066239
1.47 18.52 3.97 5066239
1.66 18.52 3.97 5066239
1.87 18.52 3.97 5066239
2.07 18.52 3.98 5066239
2.27 18.52 3.98 5066239
2.47 18.52 3.98 5066239
2.66 18.52 3.99 5066239
2.75 18.52 3.99 5066239
1.27 18.52 4.0 5066239
1.42 18.52 4.0 5066239
1.61 18.52 4.0 5066239
1.87 18.52 4.0 5066239
2.07 18.52 4.0 5066239
2.25 18.52 4.0 5066239
2.45 18.52 4.0 5066239
2.65 18.52 4.0 5066239
2.87 18.52 4.0 5066239
3.21 18.52 4.0 18313984
3.07 18.52 4.0 18313984
3.2 18.52 4.0 18313984
3.33 18.52 4.0 18313984
3.23 18.52 2.84 16216831
3.22 18.52 2.84 16216831
3.22 18.52 3.0 16216831
3.22 18.52 3.24 16216831
3.21 18.52 3.42 16216831
3.21 18.52 4.0 16216831
0.95 18.26 0.6 16216575
0.87 18.26 2.68 16216575
0.86 18.26 3.17 16216575
0.86 18.26 3.35 16216575
0.85 18.26 3.59 16216575
0.84 18.26 3.76 18313728
0.88 18.26 3.96 18313728
1.11 18.26 3.96 18313728
0.91 18.26 4.0 18313728
0.95 18.26 4.0 18313728
1.28 18.26 3.96 5066239
1.49 18.26 3.96 5066239
1.69 18.26 3.96 5066239
1.91 18.26 3.98 5066239
2.11 18.26 3.98 5066239
2.31 18.26 3.98 5066239
2.5 18.26 3.99 5066239
2.67 18.26 3.99 5066239
2.89 18.26 3.99 5066239
1.25 18.26 4.0 5066239
2.08 18.26 4.0 5066239
2.31 18.26 4.0 5066239
2.5 18.26 4.0 5066239
2.71 18.26 4.0 5066239
2.89 18.26 4.0 5066239
2.95 18.26 3.99 18313984
3.22 18.26 3.99 18313984
3.11 18.26 4.0 18313984
3.21 18.26 4.0 18313984
3.39 18.26 4.0 18313984
3.28 18.26 2.77 16216831
3.23 18.26 2.77 16216831
3.23 18.26 2.95 16216831
3.23 18.26 3.05 16216831
3.22 18.26 3.21 16216831
3.22 18.26 3.41 16216831
3.22 18.26 3.99 16216831
0.88 18.01 2.71 16216575
0.88 18.01 2.97 16216575
0.87 18.01 3.18 16216575
0.87 18.01 3.36 16216575
0.86 18.01 3.56 16216575
0.85 18.01 3.77 18313728
0.88 18.01 3.96 18313728
1.07 18.01 3.96 18313728
0.89 18.01 4.0 18313728
0.93 18.01 4.0 18313728
1.28 18.01 3.96 5066239
1.5 18.01 3.96 5066239
1.7 18.01 3.97 5066239
1.88 18.01 3.97 5066239
2.08 18.01 3.98 5066239
2.3 18.01 3.98 5066239
2.49 18.01 3.98 5066239
2.69 18.01 3.99 5066239
2.88 18.01 3.99 5066239
1.3 18.01 4.0 5066239
1.32 18.01 4.0 5066239
1.71 18.01 4.0 5066239
1.98 18.01 4.0 5066239
2.28 18.01 4.0 5066239
2.5 18.01 4.0 5066239
2.68 18.01 4.0 5066239
2.86 18.01 4.0 5066239
3.24 18.01 4.0 18313984
3.1 18.01 4.0 18313984
3.22 18.01 4.0 18313984
3.4 18.01 4.0 18313984
3.25 18.01 2.81 16216831
3.24 18.01 2.81 16216831
3.24 18.01 3.03 16216831
3.24 18.01 3.22 16216831
3.24 18.01 3.43 16216831
3.23 18.01 4.0 16216831
0.89 17.75 2.93 16216575
0.89 17.75 3.04 16216575
0.88 17.75 3.38 16216575
0.87 17.75 3.57 16216575
0.86 17.75 3.78 18313728
0.87 17.75 3.96 18313728
1.1 17.75 3.96 18313728
0.91 17.75 4.0 18313728
0.99 17.75 4.0 18313728
1.3 17.75 3.96 5066239
1.49 17.75 3.96 5066239
1.7 17.75 3.97 5066239
1.9 17.75 3.97 5066239
2.09 17.75 3.97 5066239
2.31 17.75 3.97 5066239
2.51 17.75 3.99 5066239
2.7 17.75 3.99 5066239
2.87 17.75 3.99 5066239
2.09 17.75 4.0 5066239
2.19 17.75 4.0 5066239
2.49 17.75 4.01 5066239
2.7 17.75 4.01 5066239
2.9 17.75 4.0 5066239
3.25 17.75 4.0 18313984
3.11 17.75 4.0 18313984
3.24 17.75 4.0 18313984
3.4 17.75 4.0 18313984
3.26 17.75 3.06 16216831
3.25 17.75 3.06 16216831
3.25 17.75 3.2 16216831
3.25 17.75 3.42 16216831
3.25 17.75 4.0 16216831
0.89 17.49 3.18 16216575
0.88 17.49 3.36 16216575
0.88 17.49 3.59 16216575
0.88 17.49 3.75 18313728
0.86 17.49 3.95 18313728
1.1 17.49 3.96 18313728
0.91 17.49 4.0 18313728
0.93 17.49 4.0 18313728
1.3 17.49 3.96 5066239
1.49 17.49 3.96 5066239
1.69 17.49 3.96 5066239
1.9 17.49 3.97 5066239
2.1 17.49 3.97 5066239
2.3 17.49 3.97 5066239
2.5 17.49 3.99 5066239
2.7 17.49 3.99 5066239
2.91 17.49 3.99 5066239
2.51 17.49 4.0 5066239
2.69 17.49 4.0 5066239
2.89 17.49 4.0 5066239
3.09 17.49 3.99 18313984
3.25 17.49 3.99 18313984
3.11 17.49 4.0 18313984
3.24 17.49 4.0 18313984
3.42 17.49 4.0 18313984
3.26 17.49 3.01 16216831
3.27 17.49 3.01 16216831
3.26 17.49 3.2 16216831
3.26 17.49 3.4 16216831
3.25 17.49 3.99 16216831
0.9 17.24 2.95 16216575
0.89 17.24 3.16 16216575
0.89 17.24 3.38 16216575
0.89 17.24 3.57 16216575
0.88 17.24 3.77 18313728
0.91 17.24 3.95 18313728
1.13 17.24 3.95 18313728
1.29 17.24 3.95 5066239
1.52 17.24 3.96 5066239
1.72 17.24 3.96 5066239
1.92 17.24 3.96 5066239
2.12 17.24 3.97 5066239
2.33 17.24 3.97 5066239
2.53 17.24 3.99 5066239
2.73 17.24 3.99 5066239
2.92 17.24 3.99 5066239
2.53 17.24 4.0 5066239
2.7 17.24 4.0 5066239
2.92 17.24 4.0 5066239
3.09 17.24 3.99 18313984
3.26 17.24 3.99 18313984
3.13 17.24 4.0 18313984
3.24 17.24 4.0 18313984
3.43 17.24 4.0 18313984
3.28 17.24 2.91 16216831
3.27 17.24 2.91 16216831
3.27 17.24 3.01 16216831
3.26 17.24 3.2 16216831
3.26 17.24 3.42 16216831
3.26 17.24 3.99 16216831
0.89 16.92 3.17 16216575
0.89 16.92 3.39 16216575
0.89 16.92 3.58 16216575
0.88 16.92 3.78 18313728
0.87 16.92 3.96 18313728
1.1 16.92 3.96 18313728
1.3 16.92 3.96 5066239
1.5 16.92 3.96 5066239
1.69 16.92 3.96 5066239
1.91 16.92 3.97 5066239
2.11 16.92 3.97 5066239
2.31 16.92 3.98 5066239
2.51 16.92 3.99 5066239
2.7 16.92 3.99 5066239
2.9 16.92 3.99 5066239
2.68 16.92 4.0 5066239
2.84 16.92 4.0 5066239
3.09 16.92 3.99 18313984
3.26 16.92 3.99 18313984
3.11 16.92 4.0 18313984
3.25 16.92 4.0 18313984
3.39 16.92 4.0 18313984
3.28 16.92 3.23 16216831
3.27 16.92 3.23 16216831
3.27 16.92 3.43 16216831
3.26 16.92 3.99 16216831
0.91 16.66 2.75 16216575
0.91 16.66 2.93 16216575
0.9 16.66 3.15 16216575
0.9 16.66 3.36 16216575
0.9 16.66 3.55 16216575
0.89 16.66 3.75 18313728
0.95 16.66 3.95 18313728
1.13 16.66 3.95 18313728
1.34 16.66 3.95 5066239
1.55 16.66 3.95 5066239
1.74 16.66 3.96 5066239
1.95 16.66 3.96 5066239
2.15 16.66 3.97 5066239
2.35 16.66 3.98 5066239
2.54 16.66 3.98 5066239
2.75 16.66 3.99 5066239
2.95 16.66 3.99 5066239
2.69 16.66 4.0 5066239
2.92 16.66 4.0 5066239
3.27 16.66 3.99 18313984
3.13 16.66 3.99 18313984
3.27 16.66 3.99 18313984
3.14 16.66 4.0 18313984
3.26 16.66 4.0 18313984
3.41 16.66 4.0 18313984
3.33 16.66 3.01 16216831
3.3 16.66 3.01 16216831
3.28 16.66 3.21 16216831
3.27 16.66 3.99 16216831
0.92 16.41 2.73 16216575
0.91 16.41 2.96 16216575
0.91 16.41 3.18 16216575
0.9 16.41 3.35 16216575
0.9 16.41 3.58 16216575
0.89 16.41 3.77 18313728
0.95 16.41 3.95 18313728
1.13 16.41 3.95 18313728
1.34 16.41 3.96 5066239
1.55 16.41 3.96 5066239
1.74 16.41 3.96 5066239
1.95 16.41 3.96 5066239
2.15 16.41 3.97 5066239
2.35 16.41 3.97 5066239
2.55 16.41 3.98 5066239
2.74 16.41 3.98 5066239
2.95 16.41 3.99 5066239
2.54 16.41 4.0 5066239
2.58 16.41 4.0 5066239
2.89 16.41 4.0 5066239
3.15 16.41 3.99 18313984
3.29 16.41 3.99 18313984
3.14 16.41 4.0 18313984
3.26 16.41 4.0 18313984
3.45 16.41 4.0 18313984
3.31 16.41 3.01 16216831
3.3 16.41 3.01 16216831
3.29 16.41 3.21 16216831
3.29 16.41 3.41 16216831
3.28 16.41 3.99 16216831
0.92 16.15 2.76 16216575
0.92 16.15 2.94 16216575
0.91 16.15 3.16 16216575
0.91 16.15 3.38 16216575
0.91 16.15 3.56 16216575
0.9 16.15 3.75 18313728
0.95 16.15 3.95 18313728
1.13 16.15 3.95 18313728
1.33 16.15 3.95 5066239
1.55 16.15 3.95 5066239
1.75 16.15 3.96 5066239
1.96 16.15 3.96 5066239
2.16 16.15 3.96 5066239
2.36 16.15 3.97 5066239
2.55 16.15 3.97 5066239
2.75 16.15 3.97 5066239
2.96 16.15 3.98 5066239
3.15 16.15 3.98 18313984
3.29 16.15 3.98 18313984
3.16 16.15 4.0 18313984
3.23 16.15 4.0 18313984
3.42 16.15 4.0 18313984
3.31 16.15 3.02 16216831
3.3 16.15 3.02 16216831
3.3 16.15 3.22 16216831
3.3 16.15 3.4 16216831
3.29 16.15 3.98 16216831
0.94 15.9 2.73 16216575
0.92 15.9 3.19 16216575
0.9 15.9 3.39 16216575
0.91 15.9 3.59 16216575
0.91 15.9 3.78 18313728
0.94 15.9 3.95 18313728
1.13 15.9 3.95 18313728
1.34 15.9 3.95 5066239
1.55 15.9 3.95 5066239
1.74 15.9 3.96 5066239
1.94 15.9 3.96 5066239
2.16 15.9 3.96 5066239
2.36 15.9 3.97 5066239
2.55 15.9 3.97 5066239
2.76 15.9 3.97 5066239
2.96 15.9 3.97 5066239
3.15 15.9 3.97 18313984
3.29 15.9 3.99 18313984
3.16 15.9 4.0 18313984
3.26 15.9 4.0 18313984
3.49 15.9 4.0 18313984
3.31 15.9 3.4 16216831
3.31 15.9 3.4 16216831
3.3 15.9 3.97 16216831
0.94 15.43 2.99 16216575
0.93 15.43 3.16 16216575
0.92 15.43 3.36 16216575
0.92 15.43 3.57 16216575
0.91 15.43 3.79 18313728
0.97 15.43 3.94 18313728
1.15 15.43 3.94 18313728
1.36 15.43 3.95 5066239
1.57 15.43 3.95 5066239
1.77 15.43 3.95 5066239
1.96 15.43 3.95 5066239
2.17 15.43 3.95 5066239
2.38 15.43 3.97 5066239
2.58 15.43 3.97 5066239
2.77 15.43 3.97 5066239
2.98 15.43 3.98 5066239
2.73 15.43 4.0 5066239
2.97 15.43 4.0 5066239
3.31 15.43 3.99 18313984
3.16 15.43 3.99 18313984
3.31 15.43 3.99 18313984
3.18 15.43 4.0 18313984
3.27 15.43 4.0 18313984
3.45 15.43 4.0 18313984
3.37 15.43 1.69 16216831
3.34 15.43 1.69 16216831
3.32 15.43 3.09 16216831
3.32 15.43 3.23 16216831
3.32 15.43 3.99 16216831
0.95 15.12 2.74 16216575
0.95 15.12 2.97 16216575
0.94 15.12 3.18 16216575
0.93 15.12 3.39 16216575
0.94 15.12 3.57 16216575
0.92 15.12 3.77 18313728
0.98 15.12 3.94 18313728
1.17 15.12 3.94 18313728
1.35 15.12 3.94 5066239
1.57 15.12 3.94 5066239
1.75 15.12 3.95 5066239
1.98 15.12 3.95 5066239
2.17 15.12 3.95 5066239
2.37 15.12 3.95 5066239
2.57 15.12 3.96 5066239
2.78 15.12 3.96 5066239
2.97 15.12 3.96 5066239
3.31 15.12 3.96 18313984
3.18 15.12 3.97 18313984
3.32 15.12 3.98 18313984
3.23 15.12 4.0 18313984
3.45 15.12 4.0 18313984
3.32 15.12 3.23 16216831
3.32 15.12 3.23 16216831
3.32 15.12 3.96 16216831
0.98 14.79 2.54 16216575
0.97 14.79 2.74 16216575
0.97 14.79 2.96 16216575
0.96 14.79 3.17 16216575
0.96 14.79 3.38 16216575
0.95 14.79 3.59 16216575
0.94 14.79 3.76 18313728
0.97 14.79 3.94 18313728
1.19 14.79 3.94 18313728
1.37 14.79 3.94 5066239
1.59 14.79 3.94 5066239
1.78 14.79 3.94 5066239
1.98 14.79 3.95 5066239
2.19 14.79 3.95 5066239
2.4 14.79 3.95 5066239
2.6 14.79 3.95 5066239
2.8 14.79 3.96 5066239
3.0 14.79 3.96 5066239
3.32 14.79 3.96 18313984
3.2 14.79 3.97 18313984
3.34 14.79 3.98 18313984
3.39 14.79 4.01 18313984
3.48 14.79 4.01 18313984
3.34 14.79 3.07 16216831
3.33 14.79 3.07 16216831
3.33 14.79 3.22 16216831
3.32 14.79 3.96 16216831
0.99 14.51 2.51 16216575
0.98 14.51 2.77 16216575
0.98 14.51 2.94 16216575
0.97 14.51 3.14 16216575
0.96 14.51 3.37 16216575
0.96 14.51 3.58 16216575
0.94 14.51 3.79 18313728
0.97 14.51 3.93 18313728
1.18 14.51 3.94 18313728
1.38 14.51 3.94 5066239
1.59 14.51 3.94 5066239
1.8 14.51 3.94 5066239
2.01 14.51 3.94 5066239
2.21 14.51 3.95 5066239
2.4 14.51 3.95 5066239
2.61 14.51 3.96 5066239
2.81 14.51 3.96 5066239
3.01 14.51 3.96 5066239
3.33 14.51 3.96 18313984
3.21 14.51 3.97 18313984
3.34 14.51 3.98 18313984
3.2 14.51 4.0 18313984
3.39 14.51 4.01 18313984
3.48 14.51 4.01 18313984
3.34 14.51 3.24 16216831
3.34 14.51 3.24 16216831
3.34 14.51 3.96 16216831
0.99 14.24 2.57 16216575
0.98 14.24 2.76 16216575
0.98 14.24 2.99 16216575
0.97 14.24 3.19 16216575
0.97 14.24 3.39 16216575
0.96 14.24 3.57 16216575
0.94 14.24 3.78 18313728
0.96 14.24 3.93 18313728
1.19 14.24 3.94 18313728
1.38 14.24 3.94 5066239
1.59 14.24 3.94 5066239
1.78 14.24 3.94 5066239
1.98 14.24 3.95 5066239
2.19 14.24 3.95 5066239
2.38 14.24 3.95 5066239
2.6 14.24 3.95 5066239
2.8 14.24 3.96 5066239
3.0 14.24 3.96 5066239
3.33 14.24 3.96 18313984
3.2 14.24 3.97 18313984
3.34 14.24 3.97 18313984
3.2 14.24 4.0 18313984
3.4 14.24 4.0 18313984
3.48 14.24 4.0 18313984
3.34 14.24 3.24 16216831
3.33 14.24 3.24 16216831
3.34 14.24 3.96 16216831
0.98 13.96 2.76 16216575
0.98 13.96 2.98 16216575
0.97 13.96 3.18 16216575
0.97 13.96 3.39 16216575
0.96 13.96 3.58 16216575
0.95 13.96 3.78 18313728
1.0 13.96 3.93 18313728
1.18 13.96 3.93 18313728
1.41 13.96 3.93 5066239
1.61 13.96 3.93 5066239
1.8 13.96 3.94 5066239
2.01 13.96 3.94 5066239
2.21 13.96 3.95 5066239
2.4 13.96 3.95 5066239
2.6 13.96 3.95 5066239
2.81 13.96 3.95 5066239
3.01 13.96 3.95 5066239
3.33 13.96 3.95 18313984
3.21 13.96 3.97 18313984
3.34 13.96 3.98 18313984
3.39 13.96 4.01 18313984
3.5 13.96 4.01 18313984
3.35 13.96 3.2 16216831
3.34 13.96 3.2 16216831
3.34 13.96 3.95 16216831
0.99 13.69 2.75 16216575
0.98 13.69 2.98 16216575
0.97 13.69 3.18 16216575
0.97 13.69 3.38 16216575
0.96 13.69 3.57 16216575
0.94 13.69 3.78 18313728
1.0 13.69 3.93 18313728
1.17 13.69 3.93 18313728
1.37 13.69 3.93 5066239
1.57 13.69 3.93 5066239
1.79 13.69 3.93 5066239
1.99 13.69 3.94 5066239
2.18 13.69 3.94 5066239
2.39 13.69 3.94 5066239
2.6 13.69 3.95 5066239
2.79 13.69 3.95 5066239
2.99 13.69 3.95 5066239
3.33 13.69 3.95 18313984
3.2 13.69 3.95 18313984
3.34 13.69 3.8 18313984
3.5 13.69 3.8 18313984
3.35 13.69 3.22 16216831
3.34 13.69 3.22 16216831
3.34 13.69 3.95 16216831
0.99 13.39 2.75 16216575
0.98 13.39 2.97 16216575
0.98 13.39 3.17 16216575
0.97 13.39 3.38 16216575
0.97 13.39 3.59 16216575
0.95 13.39 3.78 18313728
1.0 13.39 3.93 18313728
1.17 13.39 3.93 18313728
1.36 13.39 3.93 5066239
1.57 13.39 3.93 5066239
1.79 13.39 3.93 5066239
1.99 13.39 3.94 5066239
2.18 13.39 3.94 5066239
2.39 13.39 3.94 5066239
2.6 13.39 3.95 5066239
2.79 13.39 3.95 5066239
2.99 13.39 3.95 5066239
3.33 13.39 3.95 18313984
3.2 13.39 3.96 18313984
3.34 13.39 3.97 18313984
3.4 13.39 4.0 18313984
3.5 13.39 4.0 18313984
3.36 13.39 3.22 16216831
3.34 13.39 3.22 16216831
3.34 13.39 3.95 16216831
0.99 13.05 2.51 16216575
0.98 13.05 2.71 16216575
0.98 13.05 2.99 16216575
0.97 13.05 3.18 16216575
0.97 13.05 3.38 16216575
0.97 13.05 3.59 18313728
0.96 13.05 3.76 18313728
1.0 13.05 3.93 18313728
1.18 13.05 3.93 18313728
1.4 13.05 3.93 5066239
1.61 13.05 3.93 5066239
1.79 13.05 3.93 5066239
2.01 13.05 3.93 5066239
2.2 13.05 3.94 5066239
2.41 13.05 3.94 5066239
2.6 13.05 3.94 5066239
2.8 13.05 3.94 5066239
3.01 13.05 3.94 5066239
3.34 13.05 3.94 18313984
3.2 13.05 3.94 18313984
3.35 13.05 3.85 18313984
3.55 13.05 3.85 18313984
3.36 13.05 3.2 16216831
3.35 13.05 3.2 16216831
3.34 13.05 3.94 16216831
1.0 12.76 2.19 16216575
0.99 12.76 2.49 16216575
0.99 12.76 2.75 16216575
0.98 12.76 2.98 16216575
0.98 12.76 3.16 16216575
0.98 12.76 3.37 16216575
0.98 12.76 3.58 16216575
0.96 12.76 3.79 18313728
1.0 12.76 3.93 18313728
1.18 12.76 3.93 18313728
1.41 12.76 3.93 5066239
1.61 12.76 3.93 5066239
1.79 12.76 3.93 5066239
2.01 12.76 3.93 5066239
2.2 12.76 3.94 5066239
2.39 12.76 3.94 5066239
2.61 12.76 3.94 5066239
2.8 12.76 3.94 5066239
3.0 12.76 3.94 5066239
3.35 12.76 3.94 18313984
3.2 12.76 3.94 18313984
3.35 12.76 3.81 18313984
3.53 12.76 3.81 18313984
3.36 12.76 3.21 16216831
3.35 12.76 3.21 16216831
3.35 12.76 3.94 16216831
1.0 12.48 2.26 16216575
0.99 12.48 2.55 16216575
0.99 12.48 2.74 16216575
0.98 12.48 2.97 16216575
0.98 12.48 3.16 16216575
0.98 12.48 3.37 16216575
0.98 12.48 3.57 16216575
0.96 12.48 3.78 18313728
1.0 12.48 3.93 18313728
1.21 12.48 3.93 18313728
1.41 12.48 3.93 5066239
1.61 12.48 3.93 5066239
1.79 12.48 3.93 5066239
2.01 12.48 3.94 5066239
2.22 12.48 3.94 5066239
2.4 12.48 3.94 5066239
2.61 12.48 3.94 5066239
2.81 12.48 3.94 5066239
3.02 12.48 3.94 5066239
3.35 12.48 3.94 18313984
3.21 12.48 3.94 18313984
3.36 12.48 3.83 18313984
3.54 12.48 3.83 18313984
3.36 12.48 3.21 16216831
3.35 12.48 3.21 16216831
3.35 12.48 3.94 16216831
1.0 12.2 2.18 16216575
0.99 12.2 2.49 16216575
0.99 12.2 2.75 16216575
0.99 12.2 2.96 16216575
0.98 12.2 3.16 16216575
0.98 12.2 3.36 16216575
0.98 12.2 3.58 18313728
0.96 12.2 3.74 18313728
1.03 12.2 3.92 18313728
1.19 12.2 3.92 18313728
1.43 12.2 3.92 5066239
1.63 12.2 3.92 5066239
1.82 12.2 3.93 5066239
2.03 12.2 3.93 5066239
2.23 12.2 3.93 5066239
2.43 12.2 3.94 5066239
2.63 12.2 3.94 5066239
2.83 12.2 3.94 5066239
3.02 12.2 3.95 5066239
3.34 12.2 3.94 18313984
3.23 12.2 3.94 18313984
3.36 12.2 3.85 18313984
3.5 12.2 3.85 18313984
3.36 12.2 3.2 16216831
3.35 12.2 3.2 16216831
3.35 12.2 3.94 16216831
0.99 11.91 2.58 16216575
0.99 11.91 2.76 16216575
0.98 11.91 2.98 16216575
0.97 11.91 3.17 16216575
0.97 11.91 3.38 16216575
0.97 11.91 3.59 18313728
0.96 11.91 3.76 18313728
0.99 11.91 3.92 18313728
1.2 11.91 3.92 18313728
1.4 11.91 3.92 5066239
1.6 11.91 3.92 5066239
1.78 11.91 3.92 5066239
1.98 11.91 3.93 5066239
2.19 11.91 3.93 5066239
2.41 11.91 3.94 5066239
2.61 11.91 3.94 5066239
2.8 11.91 3.94 5066239
3.01 11.91 3.94 5066239
3.34 11.91 3.94 18313984
3.21 11.91 3.94 18313984
3.35 11.91 3.83 18313984
3.49 11.91 3.83 18313984
3.35 11.91 3.22 16216831
3.34 11.91 3.22 16216831
3.34 11.91 3.94 16216831
0.99 11.63 2.29 16216575
0.98 11.63 2.77 16216575
0.98 11.63 2.98 16216575
0.97 11.63 3.18 16216575
0.97 11.63 3.38 16216575
0.97 11.63 3.59 18313728
0.95 11.63 3.77 18313728
0.99 11.63 3.92 18313728
1.2 11.63 3.92 18313728
1.4 11.63 3.93 5066239
1.57 11.63 3.93 5066239
1.79 11.63 3.93 5066239
1.98 11.63 3.93 5066239
2.2 11.63 3.94 5066239
2.39 11.63 3.94 5066239
2.6 11.63 3.94 5066239
2.8 11.63 3.94 5066239
3.0 11.63 3.94 5066239
3.34 11.63 3.94 18313984
3.2 11.63 3.94 18313984
3.35 11.63 3.82 18313984
3.49 11.63 3.82 18313984
3.4 11.63 1.64 16216831
3.38 11.63 1.64 16216831
3.35 11.63 3.09 16216831
3.35 11.63 3.23 16216831
3.34 11.63 3.94 16216831
0.98 11.34 2.58 16216575
0.98 11.34 2.77 16216575
0.98 11.34 2.98 16216575
0.98 11.34 3.17 16216575
0.97 11.34 3.38 16216575
0.97 11.34 3.58 16216575
0.96 11.34 3.76 18313728
0.98 11.34 3.92 18313728
1.2 11.34 3.92 18313728
1.4 11.34 3.93 5066239
1.6 11.34 3.93 5066239
1.79 11.34 3.93 5066239
2.0 11.34 3.93 5066239
2.2 11.34 3.93 5066239
2.39 11.34 3.94 5066239
2.6 11.34 3.94 5066239
2.8 11.34 3.94 5066239
3.0 11.34 3.94 5066239
3.34 11.34 3.94 18313984
3.2 11.34 3.94 18313984
3.35 11.34 3.8 18313984
3.49 11.34 3.8 18313984
3.35 11.34 3.23 16216831
3.35 11.34 3.23 16216831
3.35 11.34 3.94 16216831
1.0 10.97 2.47 16216575
1.0 10.97 2.78 16216575
0.99 10.97 2.94 16216575
0.99 10.97 3.18 16216575
0.99 10.97 3.39 16216575
0.99 10.97 3.59 16216575
0.97 10.97 3.77 18313728
1.01 10.97 3.91 18313728
1.19 10.97 3.91 18313728
1.41 10.97 3.91 5066239
1.62 10.97 3.92 5066239
1.8 10.97 3.92 5066239
2.02 10.97 3.92 5066239
2.21 10.97 3.92 5066239
2.42 10.97 3.93 5066239
2.6 10.97 3.93 5066239
2.81 10.97 3.93 5066239
3.02 10.97 3.94 5066239
3.35 10.97 3.93 18313984
3.21 10.97 3.95 18313984
3.36 10.97 3.95 18313984
3.49 10.97 3.99 18313984
3.53 10.97 3.99 18313984
3.36 10.97 3.91 16216831
3.36 10.97 3.93 16216831
1.18 10.69 0.28 16216575
1.0 10.69 2.39 16216575
1.0 10.69 2.59 16216575
1.0 10.69 2.78 16216575
1.0 10.69 2.98 16216575
0.99 10.69 3.17 16216575
0.99 10.69 3.38 16216575
0.99 10.69 3.59 18313728
0.98 10.69 3.75 18313728
1.0 10.69 3.91 18313728
1.22 10.69 3.91 18313728
1.41 10.69 3.91 5066239
1.61 10.69 3.91 5066239
1.8 10.69 3.91 5066239
2.02 10.69 3.92 5066239
2.2 10.69 3.93 5066239
2.42 10.69 3.93 5066239
2.62 10.69 3.93 5066239
2.82 10.69 3.93 5066239
3.02 10.69 3.93 5066239
3.35 10.69 3.93 18313984
3.22 10.69 3.93 18313984
3.36 10.69 3.81 18313984
3.54 10.69 3.81 18313984
3.36 10.69 3.81 16216831
3.36 10.69 3.93 16216831
1.19 10.4 0.22 16216575
1.0 10.4 2.78 16216575
0.99 10.4 2.94 16216575
0.99 10.4 3.18 16216575
0.99 10.4 3.38 16216575
0.99 10.4 3.58 16216575
0.97 10.4 3.75 18313728
1.0 10.4 3.9 18313728
1.17 10.4 3.9 18313728
1.41 10.4 3.91 5066239
1.61 10.4 3.91 5066239
1.79 10.4 3.91 5066239
1.98 10.4 3.91 5066239
2.21 10.4 3.92 5066239
2.41 10.4 3.92 5066239
2.61 10.4 3.93 5066239
2.81 10.4 3.93 5066239
3.0 10.4 3.93 5066239
3.35 10.4 3.93 18313984
3.21 10.4 3.93 18313984
3.36 10.4 3.8 18313984
3.54 10.4 3.8 18313984
3.37 10.4 3.25 16216831
3.37 10.4 3.25 16216831
3.36 10.4 3.93 16216831
0.99 10.11 2.56 16216575
0.99 10.11 2.74 16216575
0.99 10.11 2.95 16216575
0.99 10.11 3.19 16216575
0.98 10.11 3.39 16216575
0.98 10.11 3.56 16216575
0.97 10.11 3.77 18313728
0.99 10.11 3.9 18313728
1.19 10.11 3.91 18313728
1.37 10.11 3.91 5066239
1.57 10.11 3.91 5066239
1.76 10.11 3.91 5066239
1.98 10.11 3.91 5066239
2.18 10.11 3.92 5066239
2.39 10.11 3.92 5066239
2.58 10.11 3.93 5066239
2.79 10.11 3.93 5066239
2.99 10.11 3.93 5066239
3.35 10.11 3.93 18313984
3.19 10.11 3.93 18313984
3.37 10.11 3.87 18313984
3.54 10.11 3.87 18313984
3.37 10.11 3.24 16216831
3.36 10.11 3.24 16216831
3.36 10.11 3.93 16216831
0.98 9.82 2.39 16216575
0.99 9.82 2.56 16216575
0.99 9.82 2.73 16216575
0.99 9.82 2.94 16216575
0.98 9.82 3.19 16216575
0.98 9.82 3.39 16216575
0.99 9.82 3.59 18313728
0.97 9.82 3.77 18313728
1.04 9.82 3.9 18313728
1.22 9.82 3.91 18313728
1.41 9.82 3.91 5066239
1.64 9.82 3.91 5066239
1.83 9.82 3.91 5066239
2.03 9.82 3.91 5066239
2.24 9.82 3.91 5066239
2.43 9.82 3.92 5066239
2.63 9.82 3.93 5066239
2.83 9.82 3.93 5066239
3.04 9.82 3.93 5066239
3.35 9.82 3.93 18313984
3.24 9.82 3.93 18313984
3.36 9.82 3.84 18313984
3.53 9.82 3.84 18313984
3.37 9.82 3.24 16216831
3.36 9.82 3.24 16216831
3.36 9.82 3.93 16216831
1.0 9.53 2.54 16216575
1.0 9.53 2.78 16216575
1.0 9.53 2.98 16216575
0.99 9.53 3.17 16216575
0.99 9.53 3.37 16216575
0.99 9.53 3.58 16216575
0.97 9.53 3.79 18313728
1.03 9.53 3.9 18313728
1.2 9.53 3.9 18313728
1.4 9.53 3.9 5066239
1.61 9.53 3.91 5066239
1.81 9.53 3.91 5066239
2.02 9.53 3.91 5066239
2.22 9.53 3.92 5066239
2.43 9.53 3.92 5066239
2.63 9.53 3.93 5066239
2.82 9.53 3.93 5066239
3.03 9.53 3.93 5066239
3.36 9.53 3.93 18313984
3.23 9.53 3.93 18313984
3.37 9.53 3.81 18313984
3.54 9.53 3.81 18313984
3.37 9.53 3.81 16216831
3.36 9.53 3.93 16216831
1.01 9.24 2.58 16216575
1.0 9.24 2.76 16216575
1.0 9.24 2.96 16216575
1.0 9.24 3.16 16216575
1.0 9.24 3.36 16216575
0.99 9.24 3.57 16216575
0.97 9.24 3.79 18313728
1.01 9.24 3.89 18313728
1.2 9.24 3.9 18313728
1.4 9.24 3.9 5066239
1.63 9.24 3.9 5066239
1.82 9.24 3.91 5066239
2.03 9.24 3.91 5066239
2.23 9.24 3.91 5066239
2.43 9.24 3.92 5066239
2.63 9.24 3.93 5066239
2.83 9.24 3.93 5066239
3.03 9.24 3.93 5066239
3.36 9.24 3.93 18313984
3.23 9.24 3.93 18313984
3.37 9.24 3.83 18313984
3.56 9.24 3.83 18313984
3.39 9.24 3.11 16216831
3.37 9.24 3.11 16216831
3.37 9.24 3.2 16216831
3.36 9.24 3.93 16216831
1.0 8.88 2.42 16216575
0.99 8.88 2.75 16216575
0.99 8.88 2.96 16216575
0.98 8.88 3.15 16216575
0.98 8.88 3.36 16216575
0.98 8.88 3.57 16216575
0.96 8.88 3.79 18313728
0.99 8.88 3.9 18313728
1.17 8.88 3.91 18313728
1.36 8.88 3.91 5066239
1.57 8.88 3.91 5066239
1.79 8.88 3.91 5066239
1.98 8.88 3.91 5066239
2.2 8.88 3.92 5066239
2.39 8.88 3.92 5066239
2.6 8.88 3.92 5066239
2.8 8.88 3.92 5066239
3.0 8.88 3.93 5066239
3.35 8.88 3.92 18313984
3.2 8.88 3.92 18313984
3.36 8.88 3.81 18313984
3.51 8.88 3.81 18313984
3.36 8.88 3.27 16216831
3.36 8.88 3.27 16216831
3.35 8.88 3.92 16216831
0.99 8.59 2.57 16216575
0.99 8.59 2.75 16216575
0.98 8.59 2.97 16216575
0.98 8.59 3.16 16216575
0.98 8.59 3.37 16216575
0.98 8.59 3.58 18313728
0.95 8.59 3.77 18313728
0.99 8.59 3.9 18313728
1.16 8.59 3.9 18313728
1.39 8.59 3.9 5066239
1.57 8.59 3.91 5066239
1.76 8.59 3.91 5066239
1.99 8.59 3.91 5066239
2.18 8.59 3.92 5066239
2.39 8.59 3.92 5066239
2.59 8.59 3.93 5066239
2.79 8.59 3.93 5066239
2.99 8.59 3.93 5066239
3.35 8.59 3.93 18313984
3.19 8.59 3.93 18313984
3.37 8.59 3.86 18313984
3.51 8.59 3.86 18313984
3.36 8.59 3.25 16216831
3.35 8.59 3.25 16216831
3.35 8.59 3.93 16216831
1.0 8.29 2.17 16216575
0.99 8.29 2.74 16216575
0.99 8.29 2.95 16216575
0.98 8.29 3.16 16216575
0.98 8.29 3.36 16216575
0.98 8.29 3.57 16216575
0.95 8.29 3.79 18313728
1.0 8.29 3.9 18313728
1.22 8.29 3.91 18313728
1.41 8.29 3.91 5066239
1.61 8.29 3.91 5066239
1.8 8.29 3.92 5066239
2.02 8.29 3.92 5066239
2.22 8.29 3.92 5066239
2.42 8.29 3.93 5066239
2.62 8.29 3.93 5066239
2.82 8.29 3.93 5066239
3.02 8.29 3.93 5066239
3.35 8.29 3.93 18313984
3.22 8.29 3.93 18313984
3.37 8.29 3.83 18313984
3.51 8.29 3.83 18313984
3.35 8.29 3.83 16216831
3.37 8.29 3.93 16216831
1.01 8.0 2.31 16216575
1.0 8.0 2.59 16216575
1.0 8.0 2.78 16216575
0.99 8.0 2.99 16216575
0.98 8.0 3.19 16216575
0.98 8.0 3.36 16216575
0.98 8.0 3.56 16216575
0.96 8.0 3.79 18313728
0.99 8.0 3.9 18313728
1.2 8.0 3.9 18313728
1.41 8.0 3.91 5066239
1.61 8.0 3.91 5066239
1.83 8.0 3.92 5066239
2.02 8.0 3.92 5066239
2.22 8.0 3.92 5066239
2.41 8.0 3.92 5066239
2.63 8.0 3.93 5066239
2.83 8.0 3.93 5066239
3.03 8.0 3.93 5066239
3.38 8.0 3.93 18313984
3.23 8.0 3.93 18313984
3.38 8.0 3.84 18313984
3.53 8.0 3.84 18313984
3.36 8.0 3.84 16216831
3.36 8.0 3.93 16216831
1.01 7.7 2.21 16216575
1.0 7.7 2.76 16216575
0.99 7.7 2.99 16216575
0.98 7.7 3.19 16216575
0.99 7.7 3.14 16216575
0.98 7.7 3.39 16216575
0.97 7.7 3.56 18313728
0.96 7.7 3.77 18313728
0.96 7.7 3.88 18313728
1.18 7.7 3.89 18313728
1.38 7.7 3.89 5066239
1.55 7.7 3.89 5066239
1.76 7.7 3.89 5066239
1.96 7.7 3.89 5066239
2.17 7.7 3.9 5066239
2.37 7.7 3.9 5066239
2.58 7.7 3.9 5066239
2.78 7.7 3.9 5066239
2.98 7.7 3.9 5066239
3.17 7.7 3.9 18313984
3.34 7.7 3.9 18313984
3.51 7.7 3.83 18313984
3.33 7.7 2.39 16216831
3.15 7.7 2.39 16216831
3.31 7.7 2.39 16216831
3.14 7.7 2.44 16216831
3.35 7.7 2.57 16216831
3.08 7.7 2.62 16216831
3.31 7.7 2.64 16216831
3.06 7.7 3.9 16216831
1.64 7.41 0.98 16216575
1.71 7.41 1.19 16216575
1.75 7.41 1.34 16216575
1.75 7.41 1.47 16216575
1.77 7.41 1.58 16216575
1.81 7.41 1.74 16216575
1.81 7.41 1.98 16216575
1.84 7.41 2.17 16216575
1.84 7.41 2.37 16216575
1.86 7.41 2.55 16216575
1.95 7.41 3.58 5066239
1.89 7.41 3.76 5066239
1.95 7.41 3.9 5066239
2.15 7.41 3.93 5066239
2.35 7.41 3.93 5066239
2.53 7.41 3.94 5066239
2.74 7.41 3.94 5066239
2.94 7.41 3.94 5066239
3.15 7.41 3.95 5066239
3.35 7.41 3.95 18313984
3.5 7.41 3.95 18313984
1.89 7.41 2.99 5066239
1.92 7.41 2.99 5066239
1.93 7.41 3.19 5066239
1.95 7.41 3.38 5066239
1.96 7.41 3.95 5066239
