# File_name:transit_20220718-165615_l1_c501_id4.pcd
# Mode:normal
# Main_id:4
# Lane1 trs_id:4 lane_min_x:500 lane_max_x:4000
# Time_begin:2022-07-18T16:56:15 Occupancy:15299ms
# Height:4040mm Width:2750mm Length:20080mm
# Speed:0km/h Direction:A
# Axles:0
# Class:Articulated truck Class_id:7 Class_cmk:501
# Offset X:2213mm Y:39374mm Z:2616mm
VERSION .7
FIELDS x y z rgb
SIZE 4 4 4 4
TYPE F F F F
COUNT 1 1 1 1
WIDTH 1973
HEIGHT 1
VIEWPOINT 0 0 1 0 0 0 0
POINTS 1973
DATA ascii
1.39 48.56 2.8 5066239
2.9 48.56 2.8 5066239
2.94 48.56 3.09 5066239
2.94 48.56 3.23 5066239
2.93 48.56 3.4 5066239
0.84 48.23 0.37 16216575
0.9 48.23 0.59 16216575
0.9 48.23 0.77 16216575
0.96 48.23 1.79 16216575
0.97 48.23 1.84 16216575
0.77 48.23 2.78 16216575
1.09 48.23 2.77 16216575
0.96 48.23 2.81 16216575
1.2 48.23 3.59 5066239
1.36 48.23 3.74 5066239
1.56 48.23 3.76 5066239
1.74 48.23 3.76 5066239
1.94 48.23 3.77 5066239
2.16 48.23 3.77 5066239
2.36 48.23 3.76 5066239
2.55 48.23 3.76 5066239
2.75 48.23 3.76 5066239
1.98 48.23 3.8 5066239
2.55 48.23 3.8 5066239
2.95 48.23 3.45 18313984
2.97 48.23 3.51 18313984
3.23 48.23 3.48 18313984
2.96 48.23 3.6 18313984
3.23 48.23 3.75 18313984
3.24 48.23 0.95 16216831
3.15 48.23 1.04 16216831
3.23 48.23 1.0 16216831
3.14 48.23 1.22 16216831
3.15 48.23 1.56 16216831
3.15 48.23 1.67 16216831
2.95 48.23 2.74 16216831
2.98 48.23 2.75 16216831
3.3 48.23 2.73 16216831
2.95 48.23 2.81 16216831
3.16 48.23 2.86 16216831
3.3 48.23 2.84 16216831
2.95 48.23 3.04 16216831
3.24 48.23 3.18 16216831
2.95 48.23 3.36 16216831
3.25 48.23 3.25 16216831
1.21 48.23 2.78 5066239
1.21 48.23 2.87 5066239
1.2 48.23 3.37 5066239
0.92 47.88 1.15 16216575
0.96 47.88 1.79 16216575
0.97 47.88 1.86 16216575
0.79 47.88 2.78 16216575
1.11 47.88 2.77 16216575
0.89 47.88 2.95 16216575
1.2 47.88 3.59 18313728
1.38 47.88 3.73 5066239
1.56 47.88 3.66 5066239
1.78 47.88 3.7 5066239
1.97 47.88 3.73 5066239
2.17 47.88 3.72 5066239
2.38 47.88 3.72 5066239
2.58 47.88 3.69 5066239
2.78 47.88 3.74 5066239
1.96 47.88 3.8 5066239
2.33 47.88 3.8 5066239
2.61 47.88 3.8 5066239
2.98 47.88 3.44 18313984
2.93 47.88 3.61 18313984
3.26 47.88 3.74 18313984
3.28 47.88 3.8 18313984
3.27 47.88 0.49 16216831
3.28 47.88 1.11 16216831
3.17 47.88 1.23 16216831
3.22 47.88 1.2 16216831
3.18 47.88 1.69 16216831
3.15 47.88 1.83 16216831
2.96 47.88 2.75 16216831
3.03 47.88 2.77 16216831
3.32 47.88 2.69 16216831
3.18 47.88 2.87 16216831
3.32 47.88 2.8 16216831
2.96 47.88 3.03 16216831
2.99 47.88 3.38 16216831
2.99 47.88 3.4 16216831
1.23 47.88 2.79 5066239
1.25 47.88 2.84 5066239
1.28 47.88 3.07 5066239
1.22 47.88 3.37 5066239
0.81 47.55 1.1 16216575
0.92 47.55 1.26 16216575
0.91 47.55 1.79 16216575
0.93 47.55 1.91 16216575
0.8 47.55 2.74 16216575
1.13 47.55 2.78 16216575
0.93 47.55 2.89 16216575
1.1 47.55 2.8 16216575
1.22 47.55 3.36 16216575
1.24 47.55 3.58 5066239
1.39 47.55 3.79 5066239
1.52 47.55 3.79 5066239
1.78 47.55 3.74 5066239
1.98 47.55 3.76 5066239
2.17 47.55 3.74 5066239
2.38 47.55 3.73 5066239
2.59 47.55 3.78 5066239
2.73 47.55 3.77 5066239
1.58 47.55 3.81 5066239
1.78 47.55 3.83 5066239
1.98 47.55 3.85 5066239
2.18 47.55 3.83 5066239
2.37 47.55 3.81 5066239
2.55 47.55 3.8 5066239
2.77 47.55 3.8 5066239
2.85 47.55 3.8 5066239
2.93 47.55 3.6 18313984
3.28 47.55 1.12 16216831
3.18 47.55 1.27 16216831
3.25 47.55 1.23 16216831
3.18 47.55 1.69 16216831
3.17 47.55 1.84 16216831
2.99 47.55 2.72 16216831
3.15 47.55 2.72 16216831
3.33 47.55 2.76 16216831
3.33 47.55 2.82 16216831
2.99 47.55 3.04 16216831
3.01 47.55 3.06 16216831
3.3 47.55 3.0 16216831
2.98 47.55 3.35 16216831
2.98 47.55 3.41 16216831
1.29 47.55 2.79 5066239
1.25 47.55 3.17 5066239
0.8 47.19 1.15 16216575
0.91 47.19 1.32 16216575
0.92 47.19 1.42 16216575
0.89 47.19 2.76 16216575
1.17 47.19 2.67 16216575
0.85 47.19 2.83 16216575
0.85 47.19 3.17 16216575
1.22 47.19 3.36 16216575
1.18 47.19 3.74 18313728
1.37 47.19 3.77 5066239
1.59 47.19 3.77 5066239
1.6 47.19 3.79 5066239
1.38 47.19 3.85 5066239
1.56 47.19 3.93 5066239
1.76 47.19 3.95 5066239
1.99 47.19 3.97 5066239
2.18 47.19 3.97 5066239
2.38 47.19 3.86 5066239
2.59 47.19 3.82 5066239
2.79 47.19 3.94 5066239
2.81 47.19 3.88 5066239
2.95 47.19 3.6 18313984
3.26 47.19 3.78 18313984
3.29 47.19 1.16 16216831
3.19 47.19 1.33 16216831
3.28 47.19 1.23 16216831
3.19 47.19 1.43 16216831
2.99 47.19 2.67 16216831
3.14 47.19 2.66 16216831
3.33 47.19 2.72 16216831
3.34 47.19 2.84 16216831
2.99 47.19 3.06 16216831
3.01 47.19 3.01 16216831
3.32 47.19 3.16 16216831
2.99 47.19 3.31 16216831
2.99 47.19 3.43 16216831
1.29 47.19 2.74 5066239
1.28 47.19 3.15 5066239
2.53 47.19 3.37 5066239
1.24 47.19 3.57 5066239
2.5 47.19 3.43 5066239
2.76 47.19 3.53 5066239
0.83 46.87 1.17 16216575
0.94 46.87 1.33 16216575
0.81 46.87 2.79 16216575
1.17 46.87 2.68 16216575
0.88 46.87 2.82 16216575
0.85 46.87 3.17 16216575
1.35 46.87 3.61 5066239
1.58 46.87 3.99 5066239
1.73 46.87 3.99 5066239
1.96 46.87 3.99 5066239
2.18 46.87 3.98 5066239
2.37 46.87 3.95 5066239
2.57 46.87 3.99 5066239
2.77 46.87 3.82 5066239
1.79 46.87 4.0 5066239
2.0 46.87 4.01 5066239
2.2 46.87 4.02 5066239
2.4 46.87 4.01 5066239
2.6 46.87 4.0 5066239
2.75 46.87 4.0 5066239
3.26 46.87 0.89 16216831
3.2 46.87 1.02 16216831
3.25 46.87 1.0 16216831
3.13 46.87 1.41 16216831
3.3 46.87 1.59 16216831
3.3 46.87 1.68 16216831
3.33 46.87 2.66 16216831
3.0 46.87 2.99 16216831
3.33 46.87 2.81 16216831
2.99 46.87 3.02 16216831
3.0 46.87 3.31 16216831
3.02 46.87 3.38 16216831
2.97 46.87 3.4 16216831
3.02 46.87 3.4 16216831
3.28 46.87 3.55 16216831
2.73 46.87 1.85 5066239
1.29 46.87 2.69 5066239
1.3 46.87 2.99 5066239
1.3 46.87 3.06 5066239
2.37 46.87 3.08 5066239
2.41 46.87 3.18 5066239
1.24 46.87 3.37 5066239
1.79 46.87 3.21 5066239
1.94 46.87 3.21 5066239
2.3 46.87 3.22 5066239
2.41 46.87 3.22 5066239
2.68 46.87 3.38 5066239
1.27 46.87 3.59 5066239
2.73 46.87 3.42 5066239
0.95 46.52 1.53 16216575
0.84 46.52 2.29 16216575
0.81 46.52 2.72 16216575
0.81 46.52 2.83 16216575
1.2 46.52 2.89 16216575
0.81 46.52 3.08 16216575
1.21 46.52 3.39 16216575
0.86 46.52 3.77 18313728
0.83 46.52 3.81 18313728
1.54 46.52 3.99 5066239
1.79 46.52 3.96 5066239
1.99 46.52 3.97 5066239
2.18 46.52 3.97 5066239
2.37 46.52 3.97 5066239
2.58 46.52 3.96 5066239
2.78 46.52 3.8 5066239
2.8 46.52 3.81 5066239
1.57 46.52 4.02 5066239
1.79 46.52 4.02 5066239
1.98 46.52 4.02 5066239
2.19 46.52 4.02 5066239
2.38 46.52 4.01 5066239
2.59 46.52 4.0 5066239
2.7 46.52 4.0 5066239
3.36 46.52 2.55 16216831
3.37 46.52 2.93 16216831
2.99 46.52 3.11 16216831
3.37 46.52 3.04 16216831
2.99 46.52 3.21 16216831
3.37 46.52 3.23 16216831
2.97 46.52 3.4 16216831
3.38 46.52 3.44 16216831
1.78 46.52 1.04 5066239
1.88 46.52 1.19 5066239
1.24 46.52 3.19 5066239
1.78 46.52 3.03 5066239
1.99 46.52 3.11 5066239
2.03 46.52 3.12 5066239
1.35 46.52 3.56 5066239
2.86 46.52 3.6 5066239
0.8 46.17 3.38 16216575
0.92 46.17 3.4 16216575
1.5 46.17 3.73 5066239
2.77 46.17 3.64 5066239
1.54 46.17 3.94 5066239
1.74 46.17 3.89 5066239
1.91 46.17 3.9 5066239
2.14 46.17 3.92 5066239
2.34 46.17 3.91 5066239
2.54 46.17 3.89 5066239
2.74 46.17 3.86 5066239
2.77 46.17 3.81 5066239
2.63 46.17 4.0 5066239
3.32 46.17 3.78 18313984
3.32 46.17 3.89 18313984
3.38 46.17 3.88 18313984
3.34 46.17 1.25 16216831
3.33 46.17 2.08 16216831
3.34 46.17 2.21 16216831
3.35 46.17 2.3 16216831
3.36 46.17 2.56 16216831
3.34 46.17 2.63 16216831
3.36 46.17 2.62 16216831
3.0 46.17 2.92 16216831
3.34 46.17 2.9 16216831
3.36 46.17 2.82 16216831
2.97 46.17 3.01 16216831
2.94 46.17 3.38 16216831
2.98 46.17 3.21 16216831
3.37 46.17 3.35 16216831
3.34 46.17 3.48 16216831
3.38 46.17 3.41 16216831
1.31 46.17 2.92 5066239
1.27 46.17 3.18 5066239
1.26 46.17 3.36 5066239
1.33 46.17 3.52 5066239
1.51 46.17 3.59 5066239
2.93 46.17 3.4 5066239
1.21 45.83 2.27 16216575
0.83 45.83 2.7 16216575
0.91 45.83 2.99 16216575
0.88 45.83 3.04 16216575
1.49 45.83 3.77 5066239
2.79 45.83 3.6 5066239
1.6 45.83 3.91 5066239
1.81 45.83 3.81 5066239
2.01 45.83 3.82 5066239
2.19 45.83 3.82 5066239
2.4 45.83 3.81 5066239
2.59 45.83 3.82 5066239
2.7 45.83 3.8 5066239
3.34 45.83 1.13 16216831
3.33 45.83 1.24 16216831
3.2 45.83 1.59 16216831
3.3 45.83 1.43 16216831
3.26 45.83 1.62 16216831
3.25 45.83 2.1 16216831
3.0 45.83 2.23 16216831
3.2 45.83 2.23 16216831
3.26 45.83 2.23 16216831
2.96 45.83 2.41 16216831
2.98 45.83 2.6 16216831
2.99 45.83 2.81 16216831
3.01 45.83 3.05 16216831
3.01 45.83 3.23 16216831
1.35 45.83 2.33 5066239
1.33 45.83 2.56 5066239
1.33 45.83 2.61 5066239
1.25 45.83 2.97 5066239
2.0 45.83 2.92 5066239
1.27 45.83 3.17 5066239
1.3 45.83 3.39 5066239
1.39 45.83 3.46 5066239
2.8 45.83 3.41 5066239
2.9 45.83 3.4 5066239
0.99 45.49 1.24 16216575
0.85 45.49 2.15 16216575
1.0 45.49 2.28 16216575
1.21 45.49 2.27 16216575
1.41 45.49 3.55 5066239
1.43 45.49 3.58 5066239
1.6 45.49 3.69 5066239
1.81 45.49 3.72 5066239
2.0 45.49 3.73 5066239
2.21 45.49 3.73 5066239
2.41 45.49 3.72 5066239
2.61 45.49 3.7 5066239
2.73 45.49 3.6 5066239
1.61 45.49 3.81 5066239
1.8 45.49 3.82 5066239
1.99 45.49 3.83 5066239
2.2 45.49 3.84 5066239
2.4 45.49 3.84 5066239
2.59 45.49 3.86 5066239
2.63 45.49 3.86 5066239
3.35 45.49 1.05 16216831
3.19 45.49 1.2 16216831
3.33 45.49 1.21 16216831
3.01 45.49 2.27 16216831
3.2 45.49 2.25 16216831
3.36 45.49 2.2 16216831
2.99 45.49 2.48 16216831
2.99 45.49 2.63 16216831
2.96 45.49 2.8 16216831
3.0 45.49 3.03 16216831
2.95 45.49 3.21 16216831
1.3 45.49 2.39 5066239
1.3 45.49 2.57 5066239
1.31 45.49 2.68 5066239
1.26 45.49 2.94 5066239
1.26 45.49 3.19 5066239
1.34 45.49 3.39 5066239
2.8 45.49 3.44 5066239
2.83 45.49 3.4 5066239
0.82 45.12 1.07 16216575
0.96 45.12 1.24 16216575
1.2 45.12 1.78 16216575
1.2 45.12 1.84 16216575
1.23 45.12 1.92 16216575
1.02 45.12 2.19 16216575
0.97 45.12 2.28 16216575
1.8 45.12 3.38 5066239
2.0 45.12 3.38 5066239
2.18 45.12 3.38 5066239
2.38 45.12 3.37 5066239
1.59 45.12 3.54 5066239
2.0 45.12 3.41 5066239
2.12 45.12 3.4 5066239
1.6 45.12 3.69 5066239
1.8 45.12 3.72 5066239
1.99 45.12 3.72 5066239
2.18 45.12 3.74 5066239
2.38 45.12 3.73 5066239
2.59 45.12 3.72 5066239
2.69 45.12 3.72 5066239
3.36 45.12 1.12 16216831
3.32 45.12 1.2 16216831
2.99 45.12 1.88 16216831
3.02 45.12 1.8 16216831
3.37 45.12 2.16 16216831
3.18 45.12 2.24 16216831
3.38 45.12 2.26 16216831
2.95 45.12 2.8 16216831
1.39 45.12 2.05 5066239
1.44 45.12 2.11 5066239
2.79 45.12 2.05 5066239
2.9 45.12 2.01 5066239
2.94 45.12 2.71 5066239
1.26 45.12 2.99 5066239
1.32 45.12 3.18 5066239
2.92 45.12 3.0 5066239
1.4 45.12 3.35 5066239
1.56 45.12 3.31 5066239
2.6 45.12 3.33 5066239
2.8 45.12 3.27 5066239
2.87 45.12 3.2 5066239
0.83 44.79 1.18 16216575
0.96 44.79 1.24 16216575
1.21 44.79 1.74 16216575
0.99 44.79 2.04 16216575
1.2 44.79 2.18 16216575
0.99 44.79 2.2 16216575
1.03 44.79 2.31 16216575
1.08 44.79 2.41 16216575
1.02 44.79 2.6 16216575
1.47 44.79 3.17 5066239
1.59 44.79 3.27 5066239
1.8 44.79 3.3 5066239
1.97 44.79 3.32 5066239
2.4 44.79 3.37 5066239
2.6 44.79 3.39 5066239
2.76 44.79 3.34 5066239
3.36 44.79 1.12 16216831
3.33 44.79 1.2 16216831
3.38 44.79 2.19 16216831
3.17 44.79 2.2 16216831
3.38 44.79 2.28 16216831
3.18 44.79 2.48 16216831
1.26 44.79 1.98 5066239
1.33 44.79 2.12 5066239
1.5 44.79 2.12 5066239
1.63 44.79 2.12 5066239
1.98 44.79 2.17 5066239
2.48 44.79 2.18 5066239
2.68 44.79 2.19 5066239
2.88 44.79 2.09 5066239
1.46 44.79 2.2 5066239
1.76 44.79 2.2 5066239
1.95 44.79 2.22 5066239
2.2 44.79 2.25 5066239
2.4 44.79 2.23 5066239
2.6 44.79 2.22 5066239
2.79 44.79 2.22 5066239
2.83 44.79 2.2 5066239
1.4 44.79 2.79 5066239
1.4 44.79 2.87 5066239
1.46 44.79 2.96 5066239
0.83 44.48 1.18 16216575
0.96 44.48 1.24 16216575
0.82 44.48 2.19 16216575
0.98 44.48 2.33 16216575
1.19 44.48 2.56 16216575
1.01 44.48 2.66 16216575
1.16 44.48 2.6 16216575
0.89 44.48 2.93 16216575
0.89 44.48 3.03 16216575
0.87 44.48 3.22 18313728
2.81 44.48 3.14 5066239
1.6 44.48 3.39 5066239
2.61 44.48 3.26 5066239
2.8 44.48 3.21 5066239
1.8 44.48 3.43 5066239
2.0 44.48 3.43 5066239
2.2 44.48 3.42 5066239
2.41 44.48 3.42 5066239
2.54 44.48 3.4 5066239
3.36 44.48 3.1 18313984
3.35 44.48 3.21 18313984
3.3 44.48 3.4 18313984
3.36 44.48 1.1 16216831
3.33 44.48 1.2 16216831
3.01 44.48 2.08 16216831
3.03 44.48 2.15 16216831
3.22 44.48 2.19 16216831
3.21 44.48 2.28 16216831
3.37 44.48 2.23 16216831
3.43 44.48 2.31 16216831
3.35 44.48 2.54 16216831
3.36 44.48 2.63 16216831
3.35 44.48 2.89 16216831
1.41 44.48 2.19 5066239
2.39 44.48 2.13 5066239
2.6 44.48 2.15 5066239
2.81 44.48 2.19 5066239
1.41 44.48 2.24 5066239
1.6 44.48 2.27 5066239
1.73 44.48 2.31 5066239
2.39 44.48 2.26 5066239
2.61 44.48 2.39 5066239
2.75 44.48 2.23 5066239
1.61 44.48 2.9 5066239
1.73 44.48 2.85 5066239
2.81 44.48 2.89 5066239
2.82 44.48 2.95 5066239
2.83 44.48 3.03 5066239
0.83 44.13 1.18 16216575
0.96 44.13 1.24 16216575
0.94 44.13 2.16 16216575
0.89 44.13 2.27 16216575
0.89 44.13 2.57 16216575
1.2 44.13 2.59 16216575
0.97 44.13 2.64 16216575
1.17 44.13 2.61 16216575
1.24 44.13 3.16 16216575
1.4 44.13 3.26 5066239
1.42 44.13 3.39 5066239
2.53 44.13 3.39 5066239
2.81 44.13 3.38 5066239
2.87 44.13 3.2 5066239
1.41 44.13 3.43 5066239
1.61 44.13 3.5 5066239
1.81 44.13 3.52 5066239
2.01 44.13 3.52 5066239
2.19 44.13 3.52 5066239
2.4 44.13 3.51 5066239
2.6 44.13 3.5 5066239
2.8 44.13 3.41 5066239
3.36 44.13 1.13 16216831
3.35 44.13 1.2 16216831
3.38 44.13 2.19 16216831
3.38 44.13 2.27 16216831
3.36 44.13 2.49 16216831
3.35 44.13 2.6 16216831
2.63 44.13 1.59 5066239
2.61 44.13 1.74 5066239
2.63 44.13 1.66 5066239
2.83 44.13 2.55 5066239
1.25 44.13 2.77 5066239
2.84 44.13 2.63 5066239
1.26 44.13 2.99 5066239
2.85 44.13 2.82 5066239
2.84 44.13 3.01 5066239
0.83 43.8 1.16 16216575
0.98 43.8 1.27 16216575
1.02 43.8 1.23 16216575
0.87 43.8 2.34 16216575
0.89 43.8 2.5 16216575
1.21 43.8 2.57 16216575
0.96 43.8 2.61 16216575
1.05 43.8 2.6 16216575
1.22 43.8 3.19 16216575
1.21 43.8 3.28 18313728
1.26 43.8 3.39 5066239
2.86 43.8 3.22 5066239
1.4 43.8 3.5 5066239
1.59 43.8 3.54 5066239
1.81 43.8 3.56 5066239
2.01 43.8 3.56 5066239
2.21 43.8 3.56 5066239
2.41 43.8 3.54 5066239
2.61 43.8 3.53 5066239
2.81 43.8 3.43 5066239
2.83 43.8 3.4 5066239
3.01 43.8 1.06 16216831
3.09 43.8 1.04 16216831
3.36 43.8 1.12 16216831
3.2 43.8 1.38 16216831
3.35 43.8 1.2 16216831
3.32 43.8 1.42 16216831
2.98 43.8 2.52 16216831
3.09 43.8 2.52 16216831
3.37 43.8 2.53 16216831
3.35 43.8 2.76 16216831
3.32 43.8 2.8 16216831
3.34 43.8 3.01 16216831
1.25 43.8 2.57 5066239
2.81 43.8 2.52 5066239
1.25 43.8 2.72 5066239
1.25 43.8 2.97 5066239
2.85 43.8 2.97 5066239
2.86 43.8 3.02 5066239
1.17 43.46 1.06 16216575
0.95 43.46 1.53 16216575
0.95 43.46 2.57 16216575
1.22 43.46 2.55 16216575
0.9 43.46 2.94 16216575
1.23 43.46 2.97 16216575
1.22 43.46 3.18 16216575
1.23 43.46 3.13 16216575
1.24 43.46 3.37 18313728
1.42 43.46 3.59 5066239
1.62 43.46 3.56 5066239
1.81 43.46 3.58 5066239
2.0 43.46 3.59 5066239
2.2 43.46 3.59 5066239
2.41 43.46 3.56 5066239
2.58 43.46 3.54 5066239
2.82 43.46 3.57 5066239
2.87 43.46 3.41 5066239
1.42 43.46 3.71 5066239
1.57 43.46 3.66 5066239
1.81 43.46 3.72 5066239
2.0 43.46 3.66 5066239
2.21 43.46 3.69 5066239
2.42 43.46 3.7 5066239
2.59 43.46 3.68 5066239
2.74 43.46 3.6 5066239
3.37 43.46 1.52 16216831
3.22 43.46 1.63 16216831
3.36 43.46 1.63 16216831
3.01 43.46 2.53 16216831
3.05 43.46 2.53 16216831
3.34 43.46 2.49 16216831
3.34 43.46 2.74 16216831
1.3 43.46 2.56 5066239
2.81 43.46 2.52 5066239
2.85 43.46 2.77 5066239
2.85 43.46 2.81 5066239
2.85 43.46 3.0 5066239
2.86 43.46 3.22 5066239
0.95 43.11 1.75 16216575
0.84 43.11 1.8 16216575
0.89 43.11 2.57 16216575
1.2 43.11 2.52 16216575
0.94 43.11 2.6 16216575
0.89 43.11 2.83 16216575
1.24 43.11 2.98 16216575
1.23 43.11 3.18 16216575
1.21 43.11 3.53 18313728
1.41 43.11 3.79 5066239
1.6 43.11 3.76 5066239
1.8 43.11 3.74 5066239
2.0 43.11 3.76 5066239
2.21 43.11 3.75 5066239
2.37 43.11 3.74 5066239
2.59 43.11 3.72 5066239
2.69 43.11 3.72 5066239
1.59 43.11 3.86 5066239
1.77 43.11 3.87 5066239
2.01 43.11 3.88 5066239
2.19 43.11 3.88 5066239
2.4 43.11 3.88 5066239
2.61 43.11 3.86 5066239
2.69 43.11 3.8 5066239
3.35 43.11 0.93 16216831
3.01 43.11 1.04 16216831
3.08 43.11 1.1 16216831
3.3 43.11 1.07 16216831
3.37 43.11 1.77 16216831
3.37 43.11 1.87 16216831
2.99 43.11 2.49 16216831
3.21 43.11 2.54 16216831
3.36 43.11 2.49 16216831
3.32 43.11 2.62 16216831
3.33 43.11 2.99 16216831
3.32 43.11 3.0 16216831
1.32 43.11 2.53 5066239
2.8 43.11 2.49 5066239
1.25 43.11 2.78 5066239
2.86 43.11 2.76 5066239
2.87 43.11 2.84 5066239
2.36 43.11 3.06 5066239
2.87 43.11 3.0 5066239
1.25 43.11 3.38 5066239
2.38 43.11 3.28 5066239
2.61 43.11 3.27 5066239
2.63 43.11 3.27 5066239
2.87 43.11 3.2 5066239
1.33 43.11 3.44 5066239
2.48 43.11 3.43 5066239
2.8 43.11 3.41 5066239
2.82 43.11 3.41 5066239
0.94 42.81 0.91 16216575
0.82 42.81 1.77 16216575
0.89 42.81 1.89 16216575
0.96 42.81 2.54 16216575
1.19 42.81 2.5 16216575
1.23 42.81 3.18 16216575
1.43 42.81 3.79 5066239
2.66 42.81 3.77 5066239
1.6 42.81 3.89 5066239
1.79 42.81 3.9 5066239
1.98 42.81 3.9 5066239
2.19 42.81 3.9 5066239
2.39 42.81 3.89 5066239
2.6 42.81 3.87 5066239
2.67 42.81 3.82 5066239
3.36 42.81 0.78 16216831
3.35 42.81 0.88 16216831
3.37 42.81 1.88 16216831
3.36 42.81 2.04 16216831
2.98 42.81 2.47 16216831
3.03 42.81 2.48 16216831
3.33 42.81 2.53 16216831
3.27 42.81 2.63 16216831
3.33 42.81 2.97 16216831
3.32 42.81 3.08 16216831
1.31 42.81 2.5 5066239
2.78 42.81 2.46 5066239
1.27 42.81 2.63 5066239
2.86 42.81 2.75 5066239
1.24 42.81 2.95 5066239
2.13 42.81 2.99 5066239
2.23 42.81 2.83 5066239
2.87 42.81 2.84 5066239
1.59 42.81 3.08 5066239
1.8 42.81 3.07 5066239
1.95 42.81 3.06 5066239
2.2 42.81 3.02 5066239
2.4 42.81 3.03 5066239
2.87 42.81 3.03 5066239
1.26 42.81 3.39 5066239
2.77 42.81 3.39 5066239
2.87 42.81 3.2 5066239
1.33 42.81 3.41 5066239
2.79 42.81 3.4 5066239
2.81 42.81 3.4 5066239
0.96 42.5 0.94 16216575
0.92 42.5 1.97 16216575
0.87 42.5 2.06 16216575
0.97 42.5 2.53 16216575
1.18 42.5 2.47 16216575
2.72 42.5 3.6 5066239
1.57 42.5 3.87 5066239
1.77 42.5 3.89 5066239
1.99 42.5 3.89 5066239
2.18 42.5 3.89 5066239
2.38 42.5 3.88 5066239
2.58 42.5 3.87 5066239
2.66 42.5 3.81 5066239
3.29 42.5 0.77 16216831
3.17 42.5 0.88 16216831
3.28 42.5 0.85 16216831
3.37 42.5 1.95 16216831
3.37 42.5 2.06 16216831
2.97 42.5 2.45 16216831
3.01 42.5 2.48 16216831
3.33 42.5 2.47 16216831
3.26 42.5 2.6 16216831
1.32 42.5 2.47 5066239
2.78 42.5 2.44 5066239
2.85 42.5 2.7 5066239
1.24 42.5 2.99 5066239
1.77 42.5 2.97 5066239
1.91 42.5 2.98 5066239
2.86 42.5 2.84 5066239
1.23 42.5 3.18 5066239
1.99 42.5 3.01 5066239
2.86 42.5 3.02 5066239
1.27 42.5 3.38 5066239
2.78 42.5 3.39 5066239
2.87 42.5 3.2 5066239
1.3 42.5 3.42 5066239
2.76 42.5 3.41 5066239
1.0 42.24 0.77 16216575
1.06 42.24 0.9 16216575
1.18 42.24 0.91 16216575
0.87 42.24 2.57 16216575
1.26 42.24 2.45 16216575
0.89 42.24 2.63 16216575
1.25 42.24 2.73 16216575
1.24 42.24 2.99 16216575
1.23 42.24 3.17 16216575
1.26 42.24 3.37 16216575
1.38 42.24 3.59 5066239
1.44 42.24 3.76 5066239
2.66 42.24 3.71 5066239
2.68 42.24 3.6 5066239
1.45 42.24 3.87 5066239
1.65 42.24 3.86 5066239
1.86 42.24 3.86 5066239
2.06 42.24 3.88 5066239
2.25 42.24 3.87 5066239
2.46 42.24 3.85 5066239
2.65 42.24 3.8 5066239
3.22 42.24 0.69 16216831
3.04 42.24 0.85 16216831
3.22 42.24 0.83 16216831
3.05 42.24 2.41 16216831
3.19 42.24 2.46 16216831
3.32 42.24 2.55 16216831
1.31 42.24 2.48 5066239
2.83 42.24 2.42 5066239
2.84 42.24 2.67 5066239
2.85 42.24 2.82 5066239
2.85 42.24 3.0 5066239
1.32 42.24 3.39 5066239
2.64 42.24 3.38 5066239
2.86 42.24 3.21 5066239
2.68 42.24 3.45 5066239
1.03 41.89 0.77 16216575
1.04 41.89 0.85 16216575
1.25 41.89 0.91 16216575
1.24 41.89 2.37 16216575
0.87 41.89 2.59 16216575
1.25 41.89 2.41 16216575
0.94 41.89 2.61 16216575
1.24 41.89 2.76 16216575
1.24 41.89 2.99 16216575
1.23 41.89 3.17 16216575
1.25 41.89 3.32 16216575
2.65 41.89 3.56 5066239
1.43 41.89 3.78 5066239
1.55 41.89 3.79 5066239
2.65 41.89 3.6 5066239
2.67 41.89 3.67 5066239
1.45 41.89 3.83 5066239
1.63 41.89 3.8 5066239
1.85 41.89 3.81 5066239
2.03 41.89 3.82 5066239
2.24 41.89 3.82 5066239
2.45 41.89 3.8 5066239
2.61 41.89 3.8 5066239
2.98 41.89 0.7 16216831
2.94 41.89 2.37 16216831
3.18 41.89 2.43 16216831
3.32 41.89 2.57 16216831
3.32 41.89 2.67 16216831
2.83 41.89 0.74 5066239
1.33 41.89 2.38 5066239
2.85 41.89 2.37 5066239
1.28 41.89 2.44 5066239
2.83 41.89 2.46 5066239
2.84 41.89 2.62 5066239
2.83 41.89 2.81 5066239
2.86 41.89 2.91 5066239
2.85 41.89 3.11 5066239
2.87 41.89 3.0 5066239
1.33 41.89 3.37 5066239
2.85 41.89 3.2 5066239
2.69 41.89 3.41 5066239
1.26 41.57 2.37 16216575
1.0 41.57 2.4 16216575
1.26 41.57 2.43 16216575
1.28 41.57 2.51 16216575
0.96 41.57 2.6 16216575
1.26 41.57 2.61 16216575
1.27 41.57 2.79 16216575
1.27 41.57 2.83 16216575
1.26 41.57 3.18 16216575
1.45 41.57 3.77 5066239
1.65 41.57 3.75 5066239
1.69 41.57 3.75 5066239
2.05 41.57 3.75 5066239
2.26 41.57 3.76 5066239
2.45 41.57 3.74 5066239
2.65 41.57 3.68 5066239
2.7 41.57 3.6 5066239
1.66 41.57 3.82 5066239
1.86 41.57 3.83 5066239
1.96 41.57 3.85 5066239
2.25 41.57 3.84 5066239
2.46 41.57 3.83 5066239
2.61 41.57 3.83 5066239
3.04 41.57 0.32 16216831
3.24 41.57 0.33 16216831
3.37 41.57 0.33 16216831
2.95 41.57 2.33 16216831
3.33 41.57 2.39 16216831
3.3 41.57 2.43 16216831
3.26 41.57 2.78 16216831
3.27 41.57 2.65 16216831
3.26 41.57 2.89 16216831
3.27 41.57 2.84 16216831
3.26 41.57 3.01 16216831
2.84 41.57 0.31 5066239
2.85 41.57 2.31 5066239
2.83 41.57 2.42 5066239
2.83 41.57 2.61 5066239
2.83 41.57 2.81 5066239
2.86 41.57 3.03 5066239
2.87 41.57 3.0 5066239
1.37 41.57 3.33 5066239
2.8 41.57 3.22 5066239
1.43 41.57 3.4 5066239
2.78 41.57 3.41 5066239
1.05 41.25 0.36 16216575
1.25 41.25 0.36 16216575
1.06 41.25 2.36 16216575
1.26 41.25 2.38 16216575
1.28 41.25 2.39 16216575
0.96 41.25 2.4 16216575
1.27 41.25 2.59 16216575
1.29 41.25 2.49 16216575
1.27 41.25 2.73 16216575
1.28 41.25 2.77 16216575
1.24 41.25 2.99 16216575
1.27 41.25 3.04 16216575
1.41 41.25 3.58 5066239
1.47 41.25 3.68 5066239
1.66 41.25 3.76 5066239
1.87 41.25 3.77 5066239
2.06 41.25 3.77 5066239
2.22 41.25 3.78 5066239
2.47 41.25 3.78 5066239
2.56 41.25 3.77 5066239
2.22 41.25 3.84 5066239
3.06 41.25 0.26 16216831
3.26 41.25 0.39 16216831
3.39 41.25 0.23 16216831
3.33 41.25 0.46 16216831
3.06 41.25 2.27 16216831
3.14 41.25 2.32 16216831
1.43 41.25 0.32 5066239
2.86 41.25 0.26 5066239
2.86 41.25 0.93 5066239
2.86 41.25 1.03 5066239
2.66 41.25 2.26 5066239
2.86 41.25 2.26 5066239
2.74 41.25 2.71 5066239
2.66 41.25 2.99 5066239
2.74 41.25 2.85 5066239
1.32 41.25 3.19 5066239
2.27 41.25 3.13 5066239
2.46 41.25 3.02 5066239
2.65 41.25 3.0 5066239
1.34 41.25 3.38 5066239
1.86 41.25 3.27 5066239
2.07 41.25 3.34 5066239
2.26 41.25 3.28 5066239
2.28 41.25 3.2 5066239
1.06 40.95 0.3 16216575
1.27 40.95 0.27 16216575
1.27 40.95 2.23 16216575
1.93 40.95 3.19 5066239
2.07 40.95 3.37 5066239
2.25 40.95 3.38 5066239
2.52 40.95 3.38 5066239
2.26 40.95 3.4 5066239
2.43 40.95 3.4 5066239
2.67 40.95 3.41 5066239
2.68 40.95 3.44 5066239
3.06 40.95 0.25 16216831
3.24 40.95 0.29 16216831
3.4 40.95 0.32 16216831
3.35 40.95 0.4 16216831
1.45 40.95 0.26 5066239
1.49 40.95 0.25 5066239
1.48 40.95 0.4 5066239
1.41 40.95 1.18 5066239
2.97 40.95 1.03 5066239
1.43 40.95 1.22 5066239
2.86 40.95 1.33 5066239
2.94 40.95 1.21 5066239
2.81 40.95 1.41 5066239
1.66 40.95 1.75 5066239
1.87 40.95 1.77 5066239
2.06 40.95 1.78 5066239
2.26 40.95 1.78 5066239
2.46 40.95 1.77 5066239
2.66 40.95 1.73 5066239
2.72 40.95 1.63 5066239
1.46 40.95 2.25 5066239
1.63 40.95 2.26 5066239
1.49 40.95 2.79 5066239
1.47 40.95 2.9 5066239
1.53 40.95 2.99 5066239
1.67 40.95 3.02 5066239
1.87 40.95 3.04 5066239
1.06 40.63 0.29 16216575
1.27 40.63 0.28 16216575
0.97 40.63 0.4 16216575
1.3 40.63 1.17 16216575
1.66 40.63 1.77 5066239
1.86 40.63 1.78 5066239
2.04 40.63 1.77 5066239
2.26 40.63 1.77 5066239
2.44 40.63 1.75 5066239
1.67 40.63 1.85 5066239
1.85 40.63 1.89 5066239
2.07 40.63 1.9 5066239
2.27 40.63 1.9 5066239
2.46 40.63 1.89 5066239
2.66 40.63 1.86 5066239
2.74 40.63 1.81 5066239
3.07 40.63 0.28 16216831
3.23 40.63 0.26 16216831
3.42 40.63 0.23 16216831
2.99 40.63 0.5 16216831
3.38 40.63 0.4 16216831
2.99 40.63 0.62 16216831
3.0 40.63 1.24 16216831
1.38 40.63 0.26 5066239
2.97 40.63 0.81 5066239
1.41 40.63 1.39 5066239
1.46 40.63 1.48 5066239
1.54 40.63 1.58 5066239
2.86 40.63 1.48 5066239
2.92 40.63 1.42 5066239
2.65 40.63 1.68 5066239
2.81 40.63 1.64 5066239
1.06 40.3 0.26 16216575
1.26 40.3 0.31 16216575
1.3 40.3 0.31 16216575
0.97 40.3 0.4 16216575
1.3 40.3 0.58 16216575
1.28 40.3 1.33 16216575
1.67 40.3 1.99 5066239
1.88 40.3 1.92 5066239
2.08 40.3 1.92 5066239
2.27 40.3 1.91 5066239
2.48 40.3 1.9 5066239
2.67 40.3 1.87 5066239
2.75 40.3 1.95 5066239
1.62 40.3 2.02 5066239
1.88 40.3 2.03 5066239
2.06 40.3 2.02 5066239
2.28 40.3 2.02 5066239
2.48 40.3 2.03 5066239
2.67 40.3 2.0 5066239
3.05 40.3 0.36 16216831
3.18 40.3 0.36 16216831
3.41 40.3 0.37 16216831
3.27 40.3 0.46 16216831
3.39 40.3 0.43 16216831
2.99 40.3 0.62 16216831
3.0 40.3 1.12 16216831
3.0 40.3 1.22 16216831
2.98 40.3 0.45 5066239
1.32 40.3 0.76 5066239
2.46 40.3 1.12 5066239
2.64 40.3 1.17 5066239
1.32 40.3 1.39 5066239
2.74 40.3 1.39 5066239
1.42 40.3 1.51 5066239
2.96 40.3 1.45 5066239
1.5 40.3 1.76 5066239
2.87 40.3 1.6 5066239
1.07 39.98 0.38 16216575
1.12 39.98 0.31 16216575
1.03 39.98 0.43 16216575
1.27 39.98 0.42 16216575
1.03 39.98 2.39 18313728
1.25 39.98 2.39 18313728
1.07 39.98 2.4 18313728
1.19 39.98 2.4 18313728
1.4 39.98 2.39 5066239
1.81 39.98 2.39 5066239
2.02 39.98 2.39 5066239
2.56 39.98 2.39 5066239
2.84 39.98 2.39 5066239
2.97 39.98 2.39 5066239
1.47 39.98 2.4 5066239
1.66 39.98 2.4 5066239
1.88 39.98 2.4 5066239
2.05 39.98 2.4 5066239
2.27 39.98 2.41 5066239
2.47 39.98 2.41 5066239
2.68 39.98 2.4 5066239
2.87 39.98 2.4 5066239
3.26 39.98 2.36 18313984
3.41 39.98 2.23 18313984
3.06 39.98 2.4 18313984
3.19 39.98 2.41 18313984
3.38 39.98 2.41 18313984
3.42 39.98 0.24 16216831
3.07 39.98 0.43 16216831
3.24 39.98 0.5 16216831
3.42 39.98 0.4 16216831
1.32 39.98 0.49 5066239
1.32 39.98 1.39 5066239
1.33 39.98 1.44 5066239
1.53 39.98 1.96 5066239
1.68 39.98 2.05 5066239
1.87 39.98 2.04 5066239
2.08 39.98 2.04 5066239
2.26 39.98 2.03 5066239
2.46 39.98 2.02 5066239
2.66 39.98 2.02 5066239
2.71 39.98 2.0 5066239
1.01 39.68 0.39 16216575
1.13 39.68 0.29 16216575
1.07 39.68 0.42 16216575
1.27 39.68 0.41 16216575
1.3 39.68 0.43 16216575
1.06 39.68 2.39 16216575
1.28 39.68 2.39 16216575
0.97 39.68 2.45 16216575
1.27 39.68 2.41 16216575
3.39 39.68 3.0 18313984
3.37 39.68 3.21 18313984
3.06 39.68 0.55 16216831
3.19 39.68 0.56 16216831
3.42 39.68 0.43 16216831
3.24 39.68 0.63 16216831
3.39 39.68 0.61 16216831
3.27 39.68 2.43 16216831
3.41 39.68 2.52 16216831
3.39 39.68 2.6 16216831
3.39 39.68 2.85 16216831
1.46 39.68 2.39 5066239
1.63 39.68 2.39 5066239
1.81 39.68 2.38 5066239
2.02 39.68 2.39 5066239
2.24 39.68 2.39 5066239
2.66 39.68 2.39 5066239
2.87 39.68 2.39 5066239
2.97 39.68 2.37 5066239
1.48 39.68 2.42 5066239
1.66 39.68 2.4 5066239
1.88 39.68 2.4 5066239
2.08 39.68 2.4 5066239
2.27 39.68 2.4 5066239
2.47 39.68 2.41 5066239
2.64 39.68 2.4 5066239
2.78 39.68 2.4 5066239
2.91 39.68 2.4 5066239
0.94 39.32 0.58 16216575
1.27 39.32 0.57 16216575
1.03 39.32 0.77 16216575
1.19 39.32 0.6 16216575
0.99 39.32 0.8 16216575
1.06 39.32 2.38 16216575
1.13 39.32 2.38 16216575
0.96 39.32 2.4 16216575
1.25 39.32 2.41 16216575
1.67 39.32 2.86 5066239
1.88 39.32 2.92 5066239
2.08 39.32 2.93 5066239
2.27 39.32 2.95 5066239
2.48 39.32 2.95 5066239
2.67 39.32 2.93 5066239
2.72 39.32 2.8 5066239
3.39 39.32 2.79 18313984
3.44 39.32 0.33 16216831
3.43 39.32 0.46 16216831
3.24 39.32 0.77 16216831
3.4 39.32 0.86 16216831
3.37 39.32 1.0 16216831
3.02 39.32 2.39 16216831
3.12 39.32 2.39 16216831
3.41 39.32 2.29 16216831
3.06 39.32 2.4 16216831
3.21 39.32 2.41 16216831
3.41 39.32 2.4 16216831
1.57 39.32 2.38 5066239
2.68 39.32 2.39 5066239
2.86 39.32 2.38 5066239
1.42 39.32 2.4 5066239
1.66 39.32 2.4 5066239
1.87 39.32 2.4 5066239
2.08 39.32 2.41 5066239
2.26 39.32 2.41 5066239
2.47 39.32 2.41 5066239
2.66 39.32 2.41 5066239
2.71 39.32 2.49 5066239
2.7 39.32 2.6 5066239
0.92 38.98 0.3 16216575
1.0 38.98 0.44 16216575
1.27 38.98 0.71 16216575
1.09 38.98 0.92 16216575
1.03 38.98 1.04 16216575
1.1 38.98 2.39 16216575
1.0 38.98 2.5 16216575
1.25 38.98 2.41 16216575
1.7 38.98 2.98 5066239
1.73 38.98 2.99 5066239
2.3 38.98 2.96 5066239
1.55 38.98 3.19 5066239
1.89 38.98 3.04 5066239
2.09 38.98 3.01 5066239
2.21 38.98 3.0 5066239
2.89 38.98 3.18 5066239
1.7 38.98 3.21 5066239
1.9 38.98 3.23 5066239
2.09 38.98 3.24 5066239
2.29 38.98 3.24 5066239
2.49 38.98 3.24 5066239
2.69 38.98 3.22 5066239
2.86 38.98 3.21 5066239
3.02 38.98 3.0 18313984
3.44 38.98 0.32 16216831
3.43 38.98 0.47 16216831
3.4 38.98 1.19 16216831
3.3 38.98 1.22 16216831
3.39 38.98 1.27 16216831
3.1 38.98 2.39 16216831
3.22 38.98 2.37 16216831
3.41 38.98 2.29 16216831
3.16 38.98 2.42 16216831
3.41 38.98 2.48 16216831
3.05 38.98 2.83 16216831
1.37 38.98 2.39 5066239
1.5 38.98 2.42 5066239
1.57 38.98 2.58 5066239
2.98 38.98 2.45 5066239
1.54 38.98 2.77 5066239
2.49 38.98 2.91 5066239
2.66 38.98 2.86 5066239
0.92 38.67 0.33 16216575
1.01 38.67 0.52 16216575
1.05 38.67 1.21 16216575
0.91 38.67 2.34 16216575
1.26 38.67 2.39 16216575
1.1 38.67 2.4 16216575
1.23 38.67 2.4 16216575
0.96 38.67 2.6 16216575
1.33 38.67 2.98 18313728
1.48 38.67 3.19 5066239
2.82 38.67 3.17 5066239
1.49 38.67 3.28 5066239
1.69 38.67 3.28 5066239
1.89 38.67 3.31 5066239
2.09 38.67 3.31 5066239
2.29 38.67 3.32 5066239
2.49 38.67 3.31 5066239
2.68 38.67 3.3 5066239
2.9 38.67 3.31 5066239
3.01 38.67 3.2 5066239
3.08 38.67 3.05 18313984
3.45 38.67 0.4 16216831
3.41 38.67 1.39 16216831
3.4 38.67 1.45 16216831
3.12 38.67 2.39 16216831
3.41 38.67 2.32 16216831
3.07 38.67 2.58 16216831
3.15 38.67 2.4 16216831
3.42 38.67 2.43 16216831
3.38 38.67 2.62 16216831
3.07 38.67 2.87 16216831
1.4 38.67 2.39 5066239
0.91 38.34 0.34 16216575
1.02 38.34 0.51 16216575
0.93 38.34 1.35 16216575
1.05 38.34 1.45 16216575
0.92 38.34 2.32 16216575
1.25 38.34 2.39 16216575
1.09 38.34 2.41 16216575
1.23 38.34 2.4 16216575
1.32 38.34 2.98 16216575
1.3 38.34 3.15 18313728
1.33 38.34 3.19 18313728
1.5 38.34 3.34 5066239
1.67 38.34 3.34 5066239
1.88 38.34 3.35 5066239
2.09 38.34 3.34 5066239
2.3 38.34 3.32 5066239
2.49 38.34 3.35 5066239
2.7 38.34 3.37 5066239
2.9 38.34 3.37 5066239
3.08 38.34 3.06 18313984
3.07 38.34 3.2 18313984
3.45 38.34 0.45 16216831
3.42 38.34 1.52 16216831
3.41 38.34 1.61 16216831
3.42 38.34 2.35 16216831
3.06 38.34 2.5 16216831
3.26 38.34 2.43 16216831
3.42 38.34 2.45 16216831
3.06 38.34 2.61 16216831
3.06 38.34 2.89 16216831
1.34 38.34 2.52 5066239
1.02 38.02 0.49 16216575
0.94 38.02 1.56 16216575
1.02 38.02 1.67 16216575
0.93 38.02 2.35 16216575
1.09 38.02 2.47 16216575
1.23 38.02 2.45 16216575
1.33 38.02 2.54 16216575
1.32 38.02 2.95 16216575
1.31 38.02 3.17 18313728
1.32 38.02 3.19 18313728
1.5 38.02 3.38 5066239
1.7 38.02 3.36 5066239
1.91 38.02 3.33 5066239
2.11 38.02 3.36 5066239
2.31 38.02 3.38 5066239
2.51 38.02 3.39 5066239
2.68 38.02 3.38 5066239
2.9 38.02 3.37 5066239
1.5 38.02 3.45 5066239
1.7 38.02 3.42 5066239
1.88 38.02 3.47 5066239
2.11 38.02 3.46 5066239
2.3 38.02 3.46 5066239
2.51 38.02 3.45 5066239
2.7 38.02 3.42 5066239
2.9 38.02 3.48 5066239
2.97 38.02 3.4 5066239
3.08 38.02 3.2 18313984
3.35 38.02 3.22 18313984
3.47 38.02 0.34 16216831
3.46 38.02 0.5 16216831
3.4 38.02 0.67 16216831
3.4 38.02 0.85 16216831
3.43 38.02 1.71 16216831
3.06 38.02 2.49 16216831
3.29 38.02 2.51 16216831
3.44 38.02 2.41 16216831
3.09 38.02 2.95 16216831
3.1 38.02 3.04 16216831
0.95 37.7 0.33 16216575
1.01 37.7 0.53 16216575
1.12 37.7 0.77 16216575
1.07 37.7 0.86 16216575
0.95 37.7 1.74 16216575
1.0 37.7 1.82 16216575
0.94 37.7 2.39 16216575
1.09 37.7 2.53 16216575
1.26 37.7 2.43 16216575
1.32 37.7 2.95 16216575
1.33 37.7 2.88 16216575
1.32 37.7 3.19 16216575
1.32 37.7 3.37 18313728
1.31 37.7 3.41 18313728
1.49 37.7 3.33 5066239
2.89 37.7 3.38 5066239
1.49 37.7 3.54 5066239
1.71 37.7 3.47 5066239
1.91 37.7 3.59 5066239
1.93 37.7 3.59 5066239
2.26 37.7 3.58 5066239
2.52 37.7 3.58 5066239
2.71 37.7 3.56 5066239
2.86 37.7 3.4 5066239
1.51 37.7 3.62 5066239
1.69 37.7 3.61 5066239
1.9 37.7 3.61 5066239
2.1 37.7 3.68 5066239
2.31 37.7 3.6 5066239
2.52 37.7 3.68 5066239
2.55 37.7 3.65 5066239
2.9 37.7 3.6 5066239
3.04 37.7 3.4 18313984
3.34 37.7 3.49 18313984
3.25 37.7 0.54 16216831
3.46 37.7 0.46 16216831
3.3 37.7 0.62 16216831
3.36 37.7 0.65 16216831
3.12 37.7 2.39 16216831
3.15 37.7 2.39 16216831
3.43 37.7 2.37 16216831
3.29 37.7 2.52 16216831
3.43 37.7 2.47 16216831
3.08 37.7 2.97 16216831
3.08 37.7 3.01 16216831
3.08 37.7 3.22 16216831
1.41 37.7 2.47 5066239
3.02 37.7 2.4 5066239
0.95 37.37 0.35 16216575
1.3 37.37 0.28 16216575
1.07 37.37 0.4 16216575
0.94 37.37 2.38 16216575
1.1 37.37 2.51 16216575
1.27 37.37 2.4 16216575
1.32 37.37 2.96 16216575
1.3 37.37 3.18 16216575
1.31 37.37 3.23 16216575
2.0 37.37 3.58 5066239
2.15 37.37 3.59 5066239
1.51 37.37 3.68 5066239
1.71 37.37 3.73 5066239
1.75 37.37 3.71 5066239
2.08 37.37 3.61 5066239
2.26 37.37 3.71 5066239
2.47 37.37 3.66 5066239
2.67 37.37 3.63 5066239
2.84 37.37 3.67 5066239
1.69 37.37 3.81 5066239
1.9 37.37 3.83 5066239
2.09 37.37 3.85 5066239
2.3 37.37 3.85 5066239
2.51 37.37 3.84 5066239
2.69 37.37 3.81 5066239
2.83 37.37 3.8 5066239
3.39 37.37 3.53 18313984
3.21 37.37 0.33 16216831
3.29 37.37 0.43 16216831
3.45 37.37 0.44 16216831
3.09 37.37 2.37 16216831
3.14 37.37 2.37 16216831
3.45 37.37 2.21 16216831
3.29 37.37 2.52 16216831
3.43 37.37 2.47 16216831
3.07 37.37 2.96 16216831
3.08 37.37 3.01 16216831
3.09 37.37 3.21 16216831
1.44 37.37 2.4 5066239
1.42 37.37 3.38 5066239
2.97 37.37 3.4 5066239
0.95 37.03 0.34 16216575
1.18 37.03 0.35 16216575
1.09 37.03 0.45 16216575
1.31 37.03 0.41 16216575
0.95 37.03 2.37 16216575
1.3 37.03 2.39 16216575
1.09 37.03 2.53 16216575
1.28 37.03 2.4 16216575
1.33 37.03 2.93 16216575
1.3 37.03 3.18 16216575
1.31 37.03 3.27 16216575
2.89 37.03 3.57 5066239
1.56 37.03 3.78 5066239
2.81 37.03 3.78 5066239
1.71 37.03 3.87 5066239
1.89 37.03 3.88 5066239
2.1 37.03 3.89 5066239
2.31 37.03 3.9 5066239
2.5 37.03 3.89 5066239
2.67 37.03 3.89 5066239
2.8 37.03 3.81 5066239
3.21 37.03 0.35 16216831
3.11 37.03 0.45 16216831
3.3 37.03 0.46 16216831
3.46 37.03 0.47 16216831
3.1 37.03 2.39 16216831
3.12 37.03 2.37 16216831
3.45 37.03 2.21 16216831
3.29 37.03 2.57 16216831
3.43 37.03 2.4 16216831
3.29 37.03 2.66 16216831
3.38 37.03 2.63 16216831
3.07 37.03 2.98 16216831
3.08 37.03 3.04 16216831
3.09 37.03 3.21 16216831
1.36 37.03 0.35 5066239
1.44 37.03 2.39 5066239
1.9 37.03 2.99 5066239
2.01 37.03 2.99 5066239
1.78 37.03 3.0 5066239
2.08 37.03 3.02 5066239
1.37 37.03 3.37 5066239
1.42 37.03 3.42 5066239
3.01 37.03 3.4 5066239
1.17 36.7 0.39 16216575
1.1 36.7 0.43 16216575
1.28 36.7 0.51 16216575
0.96 36.7 0.61 16216575
0.92 36.7 2.55 16216575
0.95 36.7 2.77 16216575
0.97 36.7 2.94 16216575
1.01 36.7 3.02 16216575
1.3 36.7 3.16 16216575
1.31 36.7 3.28 16216575
1.57 36.7 3.79 5066239
2.85 36.7 3.63 5066239
1.71 36.7 3.89 5066239
1.91 36.7 3.89 5066239
2.09 36.7 3.91 5066239
2.31 36.7 3.91 5066239
2.5 36.7 3.91 5066239
2.71 36.7 3.91 5066239
2.8 36.7 3.8 5066239
3.27 36.7 0.27 16216831
3.1 36.7 0.58 16216831
3.22 36.7 0.53 16216831
3.46 36.7 0.51 16216831
3.42 36.7 0.6 16216831
3.09 36.7 2.37 16216831
3.12 36.7 2.37 16216831
3.43 36.7 2.31 16216831
3.29 36.7 2.51 16216831
3.43 36.7 2.4 16216831
3.06 36.7 2.93 16216831
3.08 36.7 3.04 16216831
3.09 36.7 3.21 16216831
1.35 36.7 0.51 5066239
1.36 36.7 3.39 5066239
1.45 36.7 3.49 5066239
3.02 36.7 3.4 5066239
1.08 36.37 0.54 16216575
1.23 36.37 0.59 16216575
1.33 36.37 0.57 16216575
1.03 36.37 0.62 16216575
1.29 36.37 0.62 16216575
0.95 36.37 2.36 16216575
1.09 36.37 2.53 16216575
1.26 36.37 2.5 16216575
1.02 36.37 2.69 16216575
1.28 36.37 2.62 16216575
1.33 36.37 2.97 16216575
1.3 36.37 3.18 16216575
1.31 36.37 3.3 16216575
1.34 36.37 3.38 16216575
2.7 36.37 3.67 5066239
2.8 36.37 3.75 5066239
1.67 36.37 3.95 5066239
1.89 36.37 3.9 5066239
2.11 36.37 3.92 5066239
2.31 36.37 3.92 5066239
2.51 36.37 3.91 5066239
2.71 36.37 3.91 5066239
2.83 36.37 3.8 5066239
3.48 36.37 0.41 16216831
3.23 36.37 0.6 16216831
3.46 36.37 2.24 16216831
3.06 36.37 2.51 16216831
3.29 36.37 2.51 16216831
3.45 36.37 2.47 16216831
3.06 36.37 2.93 16216831
3.07 36.37 3.03 16216831
3.08 36.37 3.22 16216831
3.37 36.37 3.46 16216831
1.4 36.37 2.5 5066239
2.46 36.37 3.11 5066239
2.64 36.37 3.14 5066239
2.57 36.37 3.23 5066239
1.45 36.37 3.46 5066239
2.71 36.37 3.54 5066239
2.91 36.37 3.48 5066239
3.02 36.37 3.4 5066239
1.12 36.1 0.5 16216575
1.03 36.1 0.62 16216575
1.3 36.1 0.68 16216575
0.95 36.1 2.37 16216575
1.1 36.1 2.52 16216575
1.31 36.1 2.53 16216575
1.32 36.1 2.98 16216575
1.33 36.1 2.93 16216575
1.3 36.1 3.18 16216575
1.32 36.1 3.33 16216575
1.34 36.1 3.39 16216575
2.72 36.1 3.6 5066239
2.86 36.1 3.6 5066239
1.72 36.1 3.9 5066239
1.92 36.1 3.9 5066239
2.11 36.1 3.92 5066239
2.31 36.1 3.92 5066239
2.52 36.1 3.91 5066239
2.72 36.1 3.9 5066239
2.78 36.1 3.81 5066239
3.32 36.1 0.59 16216831
3.24 36.1 0.63 16216831
3.48 36.1 0.6 16216831
3.44 36.1 2.28 16216831
3.05 36.1 2.49 16216831
3.31 36.1 2.51 16216831
3.45 36.1 2.48 16216831
3.06 36.1 3.01 16216831
3.41 36.1 3.01 16216831
3.07 36.1 3.21 16216831
3.06 36.1 3.4 16216831
1.38 36.1 2.53 5066239
1.49 36.1 3.46 5066239
2.71 36.1 3.51 5066239
2.91 36.1 3.5 5066239
0.95 35.77 0.49 16216575
1.3 35.77 0.56 16216575
1.13 35.77 0.6 16216575
1.32 35.77 0.61 16216575
1.36 35.77 0.61 16216575
0.95 35.77 2.36 16216575
1.12 35.77 2.46 16216575
1.34 35.77 2.52 16216575
1.35 35.77 2.59 16216575
1.34 35.77 2.99 16216575
1.35 35.77 2.94 16216575
1.31 35.77 3.16 16216575
1.35 35.77 3.02 16216575
1.34 35.77 3.38 16216575
1.58 35.77 3.79 5066239
2.83 35.77 3.61 5066239
1.74 35.77 3.89 5066239
1.92 35.77 3.9 5066239
2.13 35.77 3.92 5066239
2.33 35.77 3.92 5066239
2.54 35.77 3.91 5066239
2.74 35.77 3.86 5066239
2.75 35.77 3.81 5066239
3.46 35.77 0.7 16216831
3.34 35.77 0.87 16216831
3.46 35.77 0.89 16216831
3.43 35.77 2.31 16216831
3.04 35.77 2.44 16216831
3.29 35.77 2.52 16216831
3.44 35.77 2.41 16216831
3.06 35.77 3.23 16216831
3.03 35.77 2.77 5066239
3.01 35.77 2.81 5066239
3.03 35.77 3.05 5066239
1.49 35.77 3.52 5066239
2.94 35.77 3.49 5066239
3.0 35.77 3.42 5066239
1.09 35.43 0.9 16216575
1.26 35.43 0.85 16216575
0.94 35.43 2.38 16216575
1.07 35.43 2.53 16216575
1.31 35.43 2.5 16216575
1.35 35.43 2.56 16216575
1.06 35.43 2.62 16216575
1.34 35.43 2.95 16216575
1.31 35.43 3.17 16216575
1.34 35.43 3.08 16216575
1.32 35.43 3.32 16216575
1.35 35.43 3.38 16216575
1.52 35.43 3.55 5066239
1.56 35.43 3.58 5066239
1.58 35.43 3.79 5066239
2.85 35.43 3.61 5066239
1.69 35.43 3.86 5066239
1.91 35.43 3.88 5066239
2.1 35.43 3.89 5066239
2.3 35.43 3.89 5066239
2.52 35.43 3.89 5066239
2.72 35.43 3.82 5066239
2.74 35.43 3.8 5066239
3.47 35.43 0.75 16216831
3.32 35.43 0.9 16216831
3.46 35.43 0.89 16216831
3.12 35.43 2.39 16216831
3.14 35.43 2.39 16216831
3.43 35.43 2.32 16216831
3.29 35.43 2.51 16216831
3.43 35.43 2.4 16216831
3.41 35.43 2.73 16216831
3.36 35.43 2.81 16216831
3.03 35.43 2.44 5066239
3.01 35.43 2.86 5066239
3.02 35.43 3.0 5066239
3.03 35.43 3.23 5066239
2.91 35.43 3.5 5066239
2.98 35.43 3.41 5066239
1.1 35.1 0.87 16216575
1.26 35.1 0.85 16216575
0.94 35.1 2.34 16216575
1.07 35.1 2.52 16216575
1.33 35.1 2.96 16216575
1.34 35.1 3.19 16216575
1.49 35.1 3.58 5066239
1.51 35.1 3.64 5066239
1.71 35.1 3.62 5066239
1.9 35.1 3.65 5066239
2.11 35.1 3.65 5066239
2.29 35.1 3.66 5066239
2.49 35.1 3.63 5066239
2.7 35.1 3.62 5066239
2.76 35.1 3.6 5066239
1.71 35.1 3.87 5066239
1.9 35.1 3.89 5066239
2.08 35.1 3.91 5066239
2.31 35.1 3.9 5066239
2.5 35.1 3.9 5066239
2.67 35.1 3.88 5066239
3.38 35.1 3.52 18313984
3.48 35.1 0.79 16216831
3.28 35.1 0.85 16216831
3.47 35.1 0.91 16216831
3.44 35.1 2.33 16216831
3.05 35.1 2.47 16216831
3.17 35.1 2.46 16216831
3.44 35.1 2.44 16216831
3.41 35.1 2.78 16216831
2.88 35.1 2.47 5066239
2.96 35.1 2.87 5066239
2.96 35.1 3.02 5066239
1.36 35.1 3.38 5066239
2.96 35.1 3.21 5066239
2.91 35.1 3.44 5066239
2.92 35.1 3.4 5066239
0.93 34.74 0.41 16216575
1.09 34.74 0.91 16216575
1.26 34.74 0.86 16216575
1.12 34.74 2.39 16216575
1.08 34.74 2.48 16216575
1.32 34.74 2.46 16216575
1.5 34.74 3.38 5066239
1.52 34.74 3.52 5066239
1.71 34.74 3.58 5066239
1.92 34.74 3.59 5066239
2.29 34.74 3.56 5066239
2.34 34.74 3.57 5066239
1.87 34.74 3.6 5066239
2.12 34.74 3.64 5066239
2.32 34.74 3.64 5066239
2.52 34.74 3.65 5066239
2.71 34.74 3.65 5066239
2.76 34.74 3.65 5066239
3.15 34.74 0.78 16216831
3.32 34.74 0.88 16216831
3.48 34.74 0.85 16216831
3.31 34.74 2.54 16216831
3.45 34.74 2.47 16216831
1.5 34.74 2.48 5066239
1.57 34.74 2.49 5066239
2.5 34.74 2.46 5066239
2.71 34.74 2.46 5066239
2.89 34.74 2.45 5066239
3.04 34.74 2.46 5066239
1.53 34.74 2.61 5066239
1.4 34.74 2.99 5066239
2.52 34.74 2.97 5066239
2.57 34.74 2.84 5066239
1.42 34.74 3.18 5066239
1.92 34.74 3.06 5066239
2.12 34.74 3.07 5066239
2.31 34.74 3.06 5066239
2.51 34.74 3.02 5066239
0.94 34.39 0.72 16216575
1.1 34.39 0.88 16216575
1.24 34.39 0.94 16216575
0.99 34.39 2.53 16216575
1.01 34.39 2.64 16216575
2.72 34.39 3.38 5066239
2.81 34.39 3.2 5066239
1.7 34.39 3.4 5066239
1.89 34.39 3.43 5066239
2.12 34.39 3.47 5066239
2.3 34.39 3.42 5066239
2.52 34.39 3.43 5066239
2.66 34.39 3.4 5066239
3.41 34.39 3.3 18313984
3.47 34.39 0.73 16216831
3.32 34.39 0.89 16216831
3.46 34.39 0.88 16216831
3.44 34.39 2.41 16216831
2.51 34.39 1.29 5066239
2.56 34.39 1.28 5066239
1.52 34.39 1.62 5066239
1.68 34.39 1.73 5066239
1.76 34.39 1.8 5066239
1.55 34.39 2.37 5066239
1.71 34.39 2.46 5066239
1.91 34.39 2.47 5066239
2.12 34.39 2.48 5066239
2.32 34.39 2.48 5066239
2.46 34.39 2.51 5066239
2.93 34.39 2.72 5066239
2.27 34.39 2.99 5066239
2.92 34.39 2.86 5066239
2.94 34.39 2.84 5066239
2.32 34.39 3.04 5066239
2.52 34.39 3.11 5066239
2.71 34.39 3.08 5066239
2.81 34.39 3.0 5066239
1.09 34.04 0.91 16216575
1.25 34.04 0.87 16216575
0.94 34.04 2.32 16216575
0.99 34.04 2.53 16216575
0.94 34.04 3.34 16216575
1.91 34.04 3.5 5066239
2.09 34.04 3.49 5066239
2.9 34.04 3.49 5066239
2.71 34.04 3.72 5066239
2.85 34.04 3.6 5066239
1.88 34.04 3.84 5066239
2.1 34.04 3.85 5066239
2.3 34.04 3.85 5066239
2.5 34.04 3.83 5066239
2.6 34.04 3.81 5066239
3.47 34.04 0.72 16216831
3.29 34.04 0.9 16216831
3.46 34.04 0.87 16216831
3.11 34.04 2.45 16216831
3.29 34.04 2.45 16216831
3.45 34.04 2.54 16216831
3.43 34.04 2.62 16216831
3.07 34.04 2.9 16216831
3.06 34.04 3.04 16216831
1.85 34.04 0.85 5066239
2.01 34.04 0.88 5066239
1.36 34.04 2.79 5066239
1.36 34.04 2.99 5066239
1.4 34.04 3.19 5066239
1.42 34.04 3.38 5066239
3.03 34.04 3.2 5066239
1.51 34.04 3.46 5066239
1.65 34.04 3.46 5066239
2.31 34.04 3.46 5066239
2.49 34.04 3.44 5066239
2.6 34.04 3.42 5066239
2.97 34.04 3.4 5066239
1.09 33.69 0.89 16216575
1.24 33.69 0.82 16216575
0.93 33.69 2.29 16216575
1.09 33.69 2.4 16216575
1.29 33.69 2.59 16216575
1.29 33.69 2.79 16216575
1.3 33.69 2.82 16216575
1.31 33.69 2.88 16216575
1.27 33.69 3.17 16216575
1.29 33.69 3.27 16216575
1.46 33.69 3.59 5066239
1.49 33.69 3.67 5066239
1.57 33.69 3.79 5066239
2.85 33.69 3.61 5066239
1.7 33.69 3.91 5066239
1.87 33.69 3.87 5066239
2.09 33.69 3.89 5066239
2.29 33.69 3.88 5066239
2.48 33.69 3.87 5066239
2.7 33.69 3.88 5066239
2.81 33.69 3.8 5066239
3.39 33.69 3.58 18313984
3.38 33.69 3.61 18313984
3.21 33.69 0.78 16216831
3.29 33.69 0.87 16216831
3.46 33.69 0.84 16216831
3.06 33.69 2.28 16216831
3.27 33.69 2.38 16216831
3.44 33.69 2.33 16216831
3.04 33.69 2.4 16216831
3.25 33.69 2.4 16216831
3.44 33.69 2.42 16216831
3.04 33.69 2.61 16216831
3.04 33.69 2.83 16216831
3.08 33.69 3.12 16216831
3.09 33.69 3.22 16216831
3.4 33.69 3.36 16216831
1.57 33.69 1.57 5066239
1.34 33.69 3.38 5066239
2.9 33.69 3.46 5066239
2.99 33.69 3.4 5066239
0.99 33.32 0.65 16216575
1.18 33.32 0.78 16216575
0.98 33.32 0.82 16216575
1.05 33.32 1.08 16216575
1.1 33.32 2.38 16216575
1.29 33.32 2.36 16216575
1.11 33.32 2.41 16216575
1.31 33.32 2.43 16216575
1.33 33.32 2.48 16216575
1.31 33.32 2.75 16216575
1.3 33.32 2.95 16216575
1.26 33.32 3.15 16216575
1.31 33.32 3.32 16216575
1.32 33.32 3.39 16216575
1.54 33.32 3.79 5066239
2.89 33.32 3.61 5066239
1.7 33.32 3.89 5066239
1.88 33.32 3.9 5066239
2.11 33.32 3.9 5066239
2.28 33.32 3.9 5066239
2.5 33.32 3.89 5066239
2.71 33.32 3.94 5066239
2.81 33.32 3.8 5066239
3.47 33.32 0.36 16216831
3.46 33.32 0.52 16216831
3.31 33.32 1.11 16216831
3.45 33.32 1.15 16216831
3.41 33.32 1.21 16216831
3.25 33.32 2.34 16216831
3.11 33.32 2.41 16216831
3.26 33.32 2.41 16216831
3.45 33.32 2.45 16216831
3.07 33.32 2.63 16216831
3.04 33.32 2.84 16216831
3.08 33.32 3.02 16216831
3.07 33.32 3.21 16216831
1.47 33.32 3.51 5066239
1.53 33.32 3.52 5066239
2.91 33.32 3.45 5066239
3.02 33.32 3.4 5066239
0.95 32.97 0.49 16216575
0.95 32.97 1.15 16216575
1.06 32.97 1.29 16216575
0.92 32.97 2.38 16216575
1.28 32.97 2.32 16216575
1.02 32.97 2.49 16216575
1.19 32.97 2.44 16216575
1.29 32.97 2.75 16216575
1.27 32.97 2.96 16216575
1.27 32.97 3.18 16216575
1.3 32.97 3.39 16216575
2.9 32.97 3.57 5066239
2.89 32.97 3.6 5066239
1.69 32.97 3.9 5066239
1.9 32.97 3.91 5066239
2.09 32.97 3.92 5066239
2.29 32.97 3.92 5066239
2.49 32.97 3.92 5066239
2.7 32.97 3.95 5066239
2.83 32.97 3.8 5066239
3.45 32.97 0.39 16216831
3.45 32.97 1.29 16216831
3.45 32.97 1.43 16216831
3.09 32.97 2.37 16216831
3.14 32.97 2.39 16216831
3.43 32.97 2.29 16216831
3.29 32.97 2.47 16216831
3.43 32.97 2.47 16216831
3.07 32.97 2.78 16216831
3.07 32.97 2.82 16216831
3.06 32.97 3.01 16216831
3.07 32.97 3.22 16216831
3.02 32.97 3.4 16216831
1.69 32.97 1.71 5066239
2.99 32.97 2.43 5066239
1.42 32.97 3.47 5066239
1.08 32.6 0.34 16216575
0.96 32.6 0.46 16216575
1.06 32.6 1.52 16216575
1.1 32.6 2.39 16216575
1.13 32.6 2.35 16216575
1.04 32.6 2.43 16216575
1.28 32.6 2.44 16216575
1.28 32.6 2.94 16216575
1.26 32.6 3.15 16216575
1.3 32.6 3.39 16216575
2.89 32.6 3.59 5066239
2.9 32.6 3.63 5066239
2.91 32.6 3.6 5066239
1.69 32.6 3.9 5066239
1.88 32.6 3.92 5066239
2.1 32.6 3.93 5066239
2.3 32.6 3.93 5066239
2.5 32.6 3.91 5066239
2.67 32.6 3.92 5066239
2.83 32.6 3.8 5066239
3.29 32.6 0.24 16216831
3.45 32.6 0.2 16216831
3.44 32.6 1.53 16216831
3.44 32.6 1.65 16216831
3.1 32.6 2.39 16216831
3.26 32.6 2.36 16216831
3.43 32.6 2.37 16216831
3.08 32.6 2.4 16216831
3.3 32.6 2.43 16216831
3.42 32.6 2.45 16216831
3.09 32.6 2.78 16216831
3.09 32.6 2.82 16216831
3.07 32.6 3.03 16216831
3.08 32.6 3.22 16216831
1.34 32.6 2.46 5066239
1.39 32.6 3.47 5066239
3.01 32.6 3.4 5066239
1.06 32.25 0.27 16216575
1.11 32.25 0.23 16216575
1.09 32.25 0.49 16216575
0.96 32.25 1.79 16216575
0.94 32.25 1.8 16216575
1.07 32.25 2.35 16216575
1.12 32.25 2.34 16216575
1.01 32.25 2.44 16216575
1.28 32.25 2.44 16216575
1.31 32.25 2.48 16216575
1.25 32.25 2.73 16216575
1.27 32.25 2.92 16216575
1.23 32.25 3.17 16216575
1.28 32.25 3.39 16216575
1.54 32.25 3.76 5066239
2.84 32.25 3.77 5066239
1.64 32.25 3.87 5066239
1.88 32.25 3.9 5066239
2.09 32.25 3.9 5066239
2.29 32.25 3.9 5066239
2.49 32.25 3.9 5066239
2.69 32.25 3.89 5066239
2.83 32.25 3.8 5066239
3.25 32.25 0.2 16216831
3.45 32.25 0.21 16216831
3.43 32.25 1.84 16216831
3.25 32.25 2.32 16216831
3.42 32.25 2.36 16216831
3.09 32.25 2.47 16216831
3.21 32.25 2.41 16216831
3.42 32.25 2.44 16216831
3.09 32.25 2.78 16216831
3.09 32.25 2.81 16216831
3.07 32.25 3.03 16216831
3.08 32.25 3.22 16216831
2.42 32.25 2.99 5066239
2.46 32.25 3.01 5066239
2.58 32.25 3.09 5066239
2.83 32.25 3.29 5066239
1.41 32.25 3.43 5066239
3.0 32.25 3.4 5066239
1.08 31.89 0.2 16216575
1.13 31.89 0.28 16216575
1.21 31.89 0.52 16216575
1.12 31.89 2.39 16216575
1.05 31.89 2.47 16216575
1.28 31.89 2.45 16216575
1.32 31.89 2.46 16216575
1.25 31.89 2.96 16216575
1.24 31.89 3.15 16216575
1.29 31.89 3.37 16216575
1.3 31.89 3.39 16216575
2.89 31.89 3.55 5066239
1.46 31.89 3.79 5066239
1.64 31.89 3.72 5066239
1.8 31.89 3.78 5066239
